ply
format ascii 1.0
element vertex 822
property double x
property double y
property double z
property uchar intensity
end_header
-10.615687228411753 8.350722403422463 1.658398025057247 21
-10.615342741521076 8.344454666119475 1.181308937201759 24
-10.623789050389073 8.345095868670372 0.708000816054544 26
-2.585631478255874 2.030310565199549 0.057383512365788 79
-3.050125968407027 2.403662362052788 -0.067785146602409 30
-3.046828820453715 2.400202134333683 -0.203272854047594 31
-3.065283995753065 2.413007054738612 -0.341301888599829 30
-3.060716998383487 2.408546777474736 -0.478215303521799 21
-3.065206872010918 2.410347907493628 -0.617603267978831 18
-2.624263136653546 2.062126491997356 -0.648750584280252 37
-2.508672941953638 1.970588469372493 -0.736489751921814 1
-6.195455544811416 4.919266600384468 2.119727979389645 19
-8.190106459727195 6.498383545537579 2.413724813109672 15
-9.708695613160158 7.697776666641803 2.408391139642748 15
-9.923255494946272 7.865075389110550 2.005489841815760 6
-10.583268463852212 8.382181898072933 1.657666808996816 21
-10.584588416421473 8.380221539487513 1.181134625716263 22
-10.586762901472047 8.375932838590016 0.707477456492115 27
-2.594571154550598 2.051275572767521 0.057732560494534 60
-3.046415880545160 2.418024245025284 -0.067889861041033 33
-3.046676739457376 2.416498282343190 -0.203796213610023 31
-3.056842354503422 2.423692191791723 -0.341301888599829 28
-3.066716411871749 2.429778115030260 -0.480408951703091 30
-3.068038140935782 2.429082577528489 -0.619793350489395 20
-2.617048983986809 2.071274316648966 -0.648750584280252 37
-2.521994702861816 1.994611817080183 -0.742338479334755 1
-6.168546025379142 4.931340347599578 2.116104512758210 10
-8.170417658110898 6.529365914805807 2.414624617327047 14
-9.678697990082576 7.729169237006220 2.407627903661242 15
-9.883223292157416 7.886849695612709 2.002674021445035 8
-10.558600179305058 8.422787082911775 1.658398025057247 21
-10.556740402691783 8.415275222243713 1.181134625716263 22
-10.554242489065679 8.407260513987939 0.707163440754657 26
-2.581137755903468 2.055337183570761 0.057592941243036 60
-3.017651730993006 2.412410910905844 -0.067436098473663 41
-3.042904416320655 2.430858228571130 -0.204110229347481 37
-3.047231200902787 2.432572708959932 -0.341127577114334 34
-3.053561400761518 2.436753586579506 -0.479677735642660 28
-3.059540368860570 2.439777230404788 -0.619793350489395 23
-2.605559826113211 2.076270890470977 -0.647605730307993 40
-2.511968338180139 2.000974702244058 -0.741438675117379 1
-6.135385242570328 4.941797886132994 2.110928131856159 8
-8.147576140759499 6.557846215635494 2.414624617327047 14
-9.656248660403394 7.766598458175905 2.408772757633502 15
-9.857329131356353 7.925496102483502 2.003299759305197 8
-10.535324806619874 8.464565466278506 1.659372979804488 21
-10.521086831478202 8.447084436474373 1.180437379774282 22
-10.531145604857596 8.452137933206338 0.707686800317086 27
-2.572387596859113 2.063083402087202 0.057558036430161 117
-3.029732290575732 2.437709037346530 -0.203796213610023 38
-3.032510393968864 2.438200955641001 -0.340430331172353 31
-3.043489665197040 2.446154063096138 -0.479433996955850 26
-3.051005317251496 2.450442155365482 -0.619793350489395 23
-2.593703079377573 2.081666801242343 -0.646460876335734 43
-2.500408314070749 2.006072426708288 -0.740088968791316 1
-6.108460544683598 4.953598774826830 2.107304665224724 3
-8.135232040038007 6.594836834073721 2.417773932087862 5
-9.279735368423978 7.517263597764486 2.321382237751044 14
-9.837279712998246 7.966072041659144 2.004864103955599 8
-10.505713774391738 8.501289043695106 1.659372979804488 21
-10.502381672615819 8.492527810563232 1.181657560172749 26
-10.501505924411219 8.485758708042463 0.707582128404601 26
-2.589474530110173 2.093176200501492 -0.647224112317240 43
-2.497937798037666 2.018462644731114 -0.741438675117379 1
-6.115071643546134 4.994443609655677 2.115586874668004 1
-8.100086038330618 6.613334303968140 2.414174715218359 16
-9.600271502406798 7.832580877243862 2.408391139642748 16
-9.803289771189020 7.995368040189074 2.003612628235277 6
-10.466742088174511 8.530384438905180 1.657910547683626 21
-10.461859144803748 8.520329032773196 1.180437379774282 21
-10.473370205964436 8.523624811162998 0.707686800317086 27
-1.818001558013523 1.479031045833994 0.040908440688993 37
-1.845069462400429 1.504801934444501 -0.208302225166903 2
-1.816312477112889 1.479765376224703 -0.371062551075428 2
-2.447044653026887 1.991497493966705 -0.728391513965435 1
-6.997733560925012 5.758237416718360 2.428240281151850 14
-8.067920590694490 6.634142311358791 2.411475302566233 12
-9.565287929506006 7.859812348727312 2.406483049688983 16
-9.776722273498521 8.027832959326823 2.003612628235277 6
-10.435367335487548 8.565608753835878 1.657666808996816 21
-10.447458595793114 8.569431379461928 1.182180494629235 24
-10.429703572939411 8.551823388667923 0.706849425017199 27
-1.820561606883894 1.491704939171085 0.041082964753365 49
-1.844069163263607 1.514196557291421 -0.292973901545975 33
-2.426513758621891 1.988909016029342 -0.724342394987245 1
-6.982053255073684 5.786327105409240 2.429793195422465 15
-8.044713959913393 6.662264192321381 2.411475302566233 13
-9.546868759704031 7.900663686493048 2.408772757633502 15
-9.738100803111955 8.056057601466559 2.001735414654795 6
-10.403874223836324 8.600717987505362 1.657423070310006 21
-10.419018097193117 8.607116532429416 1.182354806114731 26
-10.399747111674323 8.585091022649701 0.706744753104713 26
-1.810716449703961 1.494232485851055 0.040978250314742 100
-1.797065083303564 1.488775951715896 -0.040733916624620 100
-1.814561973969067 1.501136215293048 -0.206036175855464 39
-1.803587899441535 1.491527529844789 -0.287367911749338 31
-1.810505726510775 1.496184531673247 -0.372001157865669 21
-1.802941739754203 1.488874892484788 -0.454507026986930 10
-1.815418705575749 1.498645559764913 -0.543481747294778 1
-6.948464496259206 5.799522741656101 2.425134452610620 15
-8.027395433179834 6.695297660544806 2.413274911000984 11
-9.522248367283115 7.936454266689111 2.409535993615008 15
-9.717403890108651 8.093362784003117 2.002986890375116 6
-10.381416517291175 8.643332609247310 1.658641763744057 21
-10.370530858265054 8.628141909322412 1.180263068288787 24
-10.374323590325478 8.625171183264692 0.707058768842171 27
-1.816254843487433 1.509490987742691 0.041222584004864 100
-1.796463654147212 1.498883099357961 -0.040838631063243 100
-1.804001491280048 1.504104532603046 -0.123094169083404 63
-1.804718815945195 1.503635029847023 -0.205513241398978 73
-1.816674534217626 1.513059067231869 -0.290292775991061 57
-1.811345282507496 1.507549912626100 -0.373252633585991 65
-1.791695884028518 1.490137737232868 -0.452980555023917 41
-1.802683944208688 1.498744228743968 -0.541232236751339 8
-6.928178051569880 5.823742076406404 2.425134452610620 15
-8.009944239162850 6.728291339639964 2.415074519435735 11
-9.482457200589709 7.959547020436779 2.406483049688983 15
-9.689093580102867 8.127233546108718 2.002986890375116 6
-10.351182408944407 8.679517857365338 1.658641763744057 21
-10.337295536597614 8.661730017194570 1.179914445317796 26
-10.344152920398558 8.661331783092795 0.707058768842171 25
-1.800240697891955 1.506837155320584 0.040978250314742 100
-1.808061166911443 1.519295730025855 -0.041222584004864 100
-1.795681114104136 1.507823814698167 -0.122884825258432 64
-1.797932896410185 1.508644830259285 -0.205338929913483 60
-1.805298338209969 1.514288317450497 -0.289317821243820 61
-1.786391333448997 1.497367086040380 -0.369185337494945 54
-1.801533824896580 1.508989271237363 -0.456796734931448 50
-1.797441367978079 1.505027639142296 -0.541232236751339 10
-6.907353063686575 5.845436763521146 2.424616814520415 15
-7.986409320154703 6.756210271780947 2.415074519435735 11
-9.453116121445932 7.991331021478130 2.406101431698230 15
-9.666701241047498 8.166104315290237 2.004238366095438 6
-10.313238910801628 8.709193529525647 1.657423070310006 21
-10.311565507723492 8.701615963277098 1.180437379774282 21
-1.787325211121988 1.506667729000601 0.040803726250369 88
-1.804273277727700 1.526889569973610 -0.041257488817738 100
-1.785831741500822 1.510213689416672 -0.122570809520974 67
-1.797221126900792 1.518769605246156 -0.205861864369969 66
-1.803034345501250 1.523142815968396 -0.289805298617441 59
-1.781153663603677 1.503593633003925 -0.369185337494945 54
-1.799256756112930 1.517800381670829 -0.457559970912954 54
-1.792176890491641 1.511292711253797 -0.541232236751339 11
-6.888822243253646 5.873220925159596 2.425652090700825 14
-7.950910059330059 6.773936528604116 2.411475302566233 12
-9.419184093667377 8.019189128123729 2.404574959735218 16
-9.635128227724859 8.197237612224972 2.003612628235277 6
-10.285799665984042 8.747712492253157 1.657910547683626 22
-10.297828379856197 8.751749754848211 1.182354806114731 26
-6.896218393086119 5.856700487491770 0.474163763561071 6
-1.788152777967407 1.518074202766966 0.040943345501867 65
-1.795888567311487 1.530584146292739 -0.041187679191989 80
-1.779028694704570 1.515143210576813 -0.122466137608489 64
-1.793425963191434 1.526325132070403 -0.206036175855464 58
-1.791658806732407 1.524282045002836 -0.288830343870200 59
-1.780409276448563 1.513640338456492 -0.370123944285186 52
-1.790955275898720 1.521529474800442 -0.456796734931448 60
-1.782434489671191 1.513754981287329 -0.539882530425276 10
-5.491094866194620 4.663381602292012 0.377551588336597 1
-6.871210310973074 5.899748578185033 2.426687366881234 14
-7.928986409569922 6.805571016529491 2.412375106783609 12
-9.403140799135745 8.065161700503106 2.408009521651996 15
-9.599019745319541 8.227354966443624 2.002361152514955 6
-10.249146261964903 8.781478324501620 1.657179331623196 21
-10.252061459850314 8.777772168333641 1.180786002745273 22
-6.867610021601044 5.877942003308203 0.473745075911128 1
-1.782576747191711 1.524617913718232 0.040943345501867 59
-1.784197932888857 1.531945427569224 -0.041048059940491 62
-1.778010810062205 1.525555175418539 -0.122780153345946 61
-1.789332193609005 1.534184974448972 -0.206210487340959 57
-1.786059999528180 1.530838564495035 -0.288830343870200 59
-1.777850139562404 1.522725699017084 -0.370749682145347 52
-1.782383493485758 1.525530245516286 -0.456033498949942 60
-1.779835785255639 1.522811558946768 -0.540782334642651 10
-6.837851863209767 5.914782456227386 2.422546262159594 15
-7.911079416649245 6.838304388360393 2.414174715218359 12
-9.376416569846031 8.099219001064675 2.408391139642748 15
-9.565810257008856 8.259899845435235 2.001735414654795 6
-10.225945398029348 8.823685211237345 1.658398025057247 22
-10.216832126826521 8.809601828793339 1.180263068288787 24
-1.781789358462442 1.534746148014426 0.041048059940491 64
-1.784764650164253 1.542199030649277 -0.123617528645833 17
-1.785473989112673 1.541723694121434 -0.206384798826455 28
-1.776197379262030 1.533172450332299 -0.288099127809769 36
-1.774019804521668 1.530212506926506 -0.371062551075428 46
-1.772586333070983 1.527897251938209 -0.454888644977683 53
-1.783367121278562 1.536647422507854 -0.543481747294778 10
-6.825484542791885 5.943768471506108 2.425134452610620 15
-7.897179663684475 6.872176424504733 2.416874127870486 11
-9.339200472109631 8.124168292331648 2.406101431698230 15
-9.544330188806667 8.296759654468673 2.002986890375116 6
-10.192085897886658 8.856722512644239 1.657910547683626 21
-10.180001195026630 8.839986207003250 1.179565822346806 24
-1.771889552543201 1.537025392128370 0.040943345501867 59
-2.935099275893545 2.555042556755734 -0.067924765853907 39
-2.942962173932818 2.560082102359624 -0.204424245084939 48
-2.937735839691167 2.554635123377495 -0.340604642657848 35
-2.935356700082323 2.550767333471047 -0.477484087461368 25
-2.930380903652119 2.545545944149212 -0.614787447608107 18
-6.808642097953621 5.968916922614336 2.426169728791030 14
-7.871415658111013 6.895758377777871 2.415974323653110 11
-9.318116233637737 8.160267258731706 2.407627903661242 15
-9.504872424848665 8.317956972563435 2.000483938934472 6
-10.158177699966135 8.886550876394713 1.657179331623196 21
-10.156630848574357 8.878940978259809 1.180263068288787 24
-1.763770432739697 1.540262060383948 0.040873535876118 62
-2.920594668290003 2.559489784596942 -0.067785146602409 36
-2.914923462072412 2.552721375527664 -0.203063510222622 49
-2.926250004699737 2.561738228442096 -0.340256019686857 28
-2.935846327464841 2.568329529653715 -0.478946519582230 25
-2.935306312404817 2.566952873688627 -0.617603267978831 21
-2.502778493154415 2.187161952426047 -0.646079258344981 33
-2.420079854944102 2.114147306758736 -0.741888577226067 1
-6.785271203577396 5.992552930828571 2.425652090700825 15
-7.840244183146537 6.919404280213525 2.414174715218359 12
-9.282255948828734 8.189169701551757 2.406101431698230 15
-9.492102769096022 8.368414281857151 2.004238366095438 6
-10.124049363459253 8.922410264446532 1.656935592936385 21
-10.130000495037734 8.921374485287972 1.180960314230768 26
-1.767121509148977 1.554641361185954 0.041082964753365 62
-2.911194052202406 2.570177107578663 -0.067785146602409 36
-2.908095200399180 2.566538223409617 -0.203272854047594 50
-2.921323959733766 2.576399818874858 -0.340778954143343 12
-2.920456134413592 2.573822672636017 -0.477971564834988 20
-2.928842659560353 2.580305712871785 -0.618229005838992 16
-2.506533852180288 2.206698763277181 -0.649132202271005 40
-2.402074593219169 2.113991000620216 -0.738739262465253 1
-6.769693091807550 6.018871597448705 2.427205004971440 15
-7.811428253630842 6.940188108585286 2.412375106783609 13
-9.262388098232305 8.226424305939847 2.408009521651996 15
-9.452480622193262 8.389355244402143 2.001735414654795 6
-10.103315368504072 8.963838382915862 1.658398025057247 21
-10.097378796727822 8.952274206583049 1.180611691259778 24
-1.764950394997666 1.563144443856193 0.041152774379115 62
-2.893686992840912 2.571846245372622 -0.067575717725162 9
-2.917233962579263 2.590041510943846 -0.341301888599829 44
-2.898540799429740 2.571636173346820 -0.475777916653696 8
-2.914358476057184 2.584760994823760 -0.616977530118671 10
-2.491856119666917 2.208487724057731 -0.647224112317240 39
-2.406720084881693 2.132283286790483 -0.742338479334755 1
-6.742499199074382 6.034845636238443 2.424616814520415 14
-7.799990908807466 6.976446795466142 2.415974323653110 11
-9.235057364414081 8.257094260065983 2.408009521651996 15
-9.418716323059753 8.415390117861024 2.000483938934472 6
-10.070573595271656 8.994648190902003 1.657910547683626 22
-10.060204282821898 8.979075620826302 1.179740133832301 22
-1.761249701420874 1.570319414745822 0.041187679191989 64
-2.892593830743578 2.588094827297032 -0.067750241789535 30
-2.901883059161123 2.594582903568379 -0.204005557434995 34
-2.898230463845514 2.590407035619047 -0.340081708201362 34
-2.913685509481714 2.602391596544420 -0.479677735642660 26
-2.904297560840460 2.593095519593776 -0.616664661188590 10
-2.484518809386667 2.216738873714948 -0.647224112317240 39
-2.399635945728745 2.140252534180366 -0.742338479334755 1
-6.719579468729424 6.054585063441384 2.423581538340005 14
-7.772468702113206 6.998362253561106 2.414624617327047 12
-9.212002710379300 8.291613670352408 2.409154375624254 15
-9.387820730796452 8.443935403709824 1.999858201074312 6
-10.043643171633738 9.030648472362392 1.658398025057247 22
-10.037783426381875 9.019045177817556 1.180611691259778 26
-1.750079997585128 1.570808409331819 0.041048059940491 67
-2.882509664829456 2.596334467148429 -0.067715336976660 36
-2.896232128600718 2.606863964875102 -0.204214901259967 45
-2.889624429104299 2.600003671241734 -0.340081708201362 34
-2.905039647527219 2.612039417050145 -0.479677735642660 27
-2.900090009030819 2.606673769941588 -0.617603267978831 18
-2.477154177651154 2.224965646606840 -0.647224112317240 39
-2.389625387739754 2.145594369238933 -0.741438675117379 1
-6.704863362954005 6.088133680163086 2.426687366881234 14
-7.746982868224507 7.029464240253895 2.415074519435735 10
-9.169918265556493 8.317690925645953 2.406483049688983 15
-9.361183620308426 8.485226295645163 2.001109676794633 6
-10.004480924313121 9.065147885468013 1.657666808996816 21
-10.008986488970601 9.062870111531513 1.181308937201759 26
-1.741069592972179 1.574833786603790 0.040978250314742 67
-2.876961271599207 2.611415379127630 -0.067820051415284 34
-2.869928374143538 2.603205012691450 -0.203063510222622 51
-2.876667912234856 2.608403180782872 -0.339733085230372 37
-2.886162560432634 2.615177202071496 -0.478215303521799 23
-2.891523808867031 2.619116207903473 -0.617916136908912 19
-2.474414835499229 2.239730765350459 -0.648750584280252 39
-2.371254261842246 2.145601558090243 -0.738289360356565 1
-6.684637518517840 6.110334333687697 2.426687366881234 14
-7.732262698380299 7.063001258427827 2.417773932087862 6
-9.132136959445711 8.338786947192613 2.403811723753712 15
-9.332994124953924 8.516222444547489 2.001109676794633 6
-9.975831405275061 9.099611881251153 1.657910547683626 21
-9.978877895853538 9.096011276077714 1.181308937201759 26
-9.979872345593417 9.090541656810950 0.707477456492115 7
-1.738794816992478 1.583291394903420 0.041048059940491 67
-2.865333257684695 2.618243538547068 -0.067750241789535 33
-2.861280055395479 2.612707724834929 -0.203063510222622 51
-2.875359943924285 2.624644294047415 -0.340604642657848 37
-2.854008808389483 2.603329126861915 -0.474315484532834 10
-2.882822607955212 2.628690445604024 -0.617916136908912 19
-2.466974015458575 2.247923905840281 -0.648750584280252 37
-2.355482181405343 2.145579437335777 -0.735589947704439 1
-6.634053328710049 6.042876707212842 0.470290902799093 1
-6.667881592749441 6.140028178664344 2.428757919242055 5
-7.694851557283538 7.080737529083498 2.414174715218359 15
-9.113071749552326 8.382834947616841 2.406864667679737 15
-9.295900711953134 8.545025051403011 1.999858201074312 6
-9.948259413138855 9.141486615355232 1.658885502430868 21
-9.948407388083393 9.135219748381225 1.181657560172749 24
-6.588315055053902 6.045545437530679 0.468616152199319 11
-1.738874574870494 1.595060747417394 0.041187679191989 67
-2.849832625362863 2.623310658526250 -0.067610622538036 31
-2.857564546652609 2.628585904410015 -0.203482197872566 54
-2.862787644392758 2.632468184837001 -0.340256019686857 37
-2.864911614715274 2.632576221877205 -0.477727826148178 25
-2.874623381391200 2.640575185731010 -0.618229005838992 16
-2.450040562665033 2.248985010324267 -0.646460876335734 37
-2.361960842906588 2.167373824435786 -0.740088968791316 1
-6.648900633084958 6.163419232691419 2.429275557332260 14
-7.679906382886052 7.114161468517310 2.416874127870486 13
-9.088104157068239 8.415676723103781 2.407627903661242 15
-9.267513275726104 8.575804385586011 1.999858201074312 6
-9.920804907224051 9.177121951172596 1.659372979804488 21
-9.907817813340882 9.158692579734113 1.180437379774282 17
-6.509546861325036 6.013150680640413 0.464429275699884 11
-1.735044733764057 1.602174918791820 0.041222584004864 72
-2.838184220641550 2.630028244770856 -0.067540812912287 28
-2.854693924320876 2.643475558299832 -0.203900885522509 50
-2.845269653650922 2.633826317665066 -0.339210150773886 37
-2.856165925111507 2.642062136354038 -0.477727826148178 23
-2.444011082904368 2.258429678819800 -0.646842494326487 36
-2.343308862227097 2.164615998629340 -0.736489751921814 1
-6.619206179383960 6.181154744724016 2.426687366881234 14
-7.649505830283336 7.138273343140043 2.415524421544422 12
-9.044277720151101 8.436877081971147 2.404193341744465 15
-9.238909001588155 8.612407820722298 2.000483938934472 6
-9.890006991867544 9.216128523599679 1.659860457178109 22
-6.437751472383287 5.990708674769282 0.460870430675363 1
-1.720375916872480 1.600351406957750 0.041013155127616 72
-2.840219784485269 2.651329480929234 -0.067820051415284 23
-2.841602233236168 2.651692007739229 -0.203691541697537 46
-2.845797076012780 2.653748705468360 -0.340430331172353 13
-3.246377932018558 3.024120028903158 -0.702703616960717 4
-2.438591110873136 2.270047623298414 -0.647605730307993 36
-2.335359408432157 2.173190115650619 -0.736489751921814 1
-6.597264770329085 6.201747656691040 2.426169728791030 14
-7.625792403267045 7.163600769947828 2.415524421544422 11
-9.013387997340889 8.464134718688227 2.403430105762959 15
-9.210298429405515 8.642997793089821 2.000483938934472 6
-9.850704141775463 9.240725507323218 1.658398025057247 21
-1.717978751367381 1.608781277817855 0.041082964753365 69
-6.452646693063186 6.063678612942136 -0.154558511408583 8
-3.600632157641913 3.377672595048919 -0.606178114097204 1
-3.240654532881782 3.038922476712358 -0.703642223750959 5
-2.436780183187296 2.283491563987150 -0.649132202271005 36
-2.321029013957970 2.174261158257195 -0.734240241378375 1
-2.831412042597510 2.660733411234546 -0.067820051415284 7
-6.578698038725515 6.229871177129979 2.427722643061645 14
-7.586908371619931 7.182111261161111 2.411925204674921 11
-8.983731067030043 8.498462761701287 2.403811723753712 15
-9.175687404051624 8.673983158775684 1.999858201074312 6
-9.818211818204034 9.278131503295402 1.658641763744057 21
-1.714979944989973 1.617811558075628 0.041152774379115 72
-6.444900942904760 6.101035279699955 -0.154907559537328 11
-3.814477830392249 3.607172369496976 -0.459310764280159 1
-3.593406538154085 3.396927818271129 -0.607153068844445 1
-2.428394400835792 2.292407472061668 -0.649132202271005 33
-2.226588656408591 2.101167786921613 -0.706796212748424 1
-6.555513588219071 6.251463945230486 2.427205004971440 14
-7.563049917010884 7.207230866279747 2.411925204674921 13
-8.966873621889352 8.539038348698281 2.406864667679737 15
-9.143922901089740 8.704597431451200 1.999545332144231 8
-9.790266970684348 9.313375263780333 1.659129241117678 21
-3.411017698115907 3.241463749289488 0.246607025816751 1
-1.712505753408707 1.626243752673639 0.041222584004864 69
-6.425012491806027 6.124874799771634 -0.154942464350203 21
-3.738216072739200 3.561099372113734 -0.270576893776020 1
-3.741264251766225 3.562757797819221 -0.451989681889355 1
-3.605130573922691 3.430720611364077 -0.611052887833409 1
-2.579496137372104 2.452989344689816 -0.563789812004992 1
-2.421800525366704 2.302222841651635 -0.649513820261759 37
-2.271884643001652 2.158199941329217 -0.723442590769870 1
-6.529172408741533 6.267817047719986 2.425134452610620 14
-7.540658014123856 7.236285524389816 2.412825008892296 12
-8.934178188490833 8.567568849835661 2.406101431698230 15
-9.103597335445905 8.723937945889801 1.997042380703587 8
-9.757697578482617 9.347492932767734 1.659129241117678 9
-1.706818670180851 1.632211605671898 0.041222584004864 69
-6.349839287716071 6.093533221349829 -0.153616081460969 6
-3.708467131278338 3.557534796219329 -0.269320830826189 1
-3.755317975986447 3.599962506801833 -0.455127288628271 1
-2.578399104785295 2.470868708384383 -0.438485897571721 1
-2.563784379008875 2.455147283119282 -0.562225467354590 7
-2.407060657774015 2.303454320768870 -0.647605730307993 36
-2.292500677206288 2.193058905780202 -0.732440632943624 1
-6.507253866340887 6.290569926942436 2.425134452610620 14
-7.519423305579492 7.263959366494741 2.413724813109672 12
-8.902893013188928 8.594421455801314 2.405338195716724 15
-9.083039768690787 8.765264292559142 1.999232463214151 6
-1.692752832525908 1.629541582495517 0.041013155127616 72
-5.336327102810976 5.156832222867709 -0.129531760577518 1
-3.693776114473434 3.567038130397478 -0.269111487001217 1
-3.754196455304446 3.624119319075667 -0.456521780512234 7
-2.558761810142657 2.468379697305279 -0.436535988077238 3
-2.569850360739218 2.477345313225627 -0.565354156655394 25
-2.403246460217163 2.315929431319034 -0.648750584280252 37
-2.290830407265049 2.206056053932102 -0.734240241378375 1
-6.488306140057404 6.318421310447127 2.426687366881234 14
-7.485890897565952 7.287340960651771 2.411925204674921 13
-8.867012777208402 8.625804755026476 2.404574959735218 15
-9.056518095381438 8.804004088941225 2.000483938934472 6
-2.637296961246376 2.559291190177132 0.192596318974033 1
-1.685048073875700 1.634636892930334 0.040978250314742 64
-5.318823397469071 5.177751070277055 -0.129566665390393 11
-3.639974113180059 3.542193148948811 -0.266180673451612 1
-3.755171828693276 3.651745038014359 -0.458264895367187 7
-2.478516723187266 2.408569437129393 -0.424349053736724 4
-2.476722643079623 2.405985646006331 -0.546894889780647 6
-2.398968027694016 2.328824665242203 -0.649895438252512 36
-2.279545904692998 2.212121667454550 -0.733340437161000 1
-6.467590516050568 6.342383840523557 2.427205004971440 14
-7.463075889686117 7.313488949123842 2.412375106783609 13
-8.836957132394003 8.653787784302452 2.404193341744465 15
-9.025731210641277 8.835563599642141 2.000483938934472 6
-2.596921408879217 2.537771377787826 0.190293536899344 6
-1.689632916663583 1.649995547113651 0.041222584004864 69
-5.302145264229646 5.197685545510423 -0.129601570203267 16
-3.655315882939723 3.580799763668994 -0.268169439788844 1
-3.740978474125697 3.663436784371624 -0.458090583881691 5
-2.453068799535639 2.400545587414091 -0.421424189495000 4
-2.450370365521725 2.396231056326181 -0.542827593689601 4
-2.393632076808546 2.339929223399127 -0.650658674234018 33
-2.266621765872302 2.214221711206997 -0.731540828726249 1
-6.463020671505878 6.380082377879314 2.433416662053900 14
-7.443049885575251 7.344970581645553 2.414174715218359 15
-8.816481155759679 8.694231334718980 2.406864667679737 15
-8.976683747242296 8.846034061983083 1.996103773913346 6
-2.589915389717441 2.547769769069803 0.190398208811830 3
-1.686714652141957 1.658687619920608 0.041292393630613 72
-5.223676130071159 5.154842180726757 -0.128100663249661 7
-3.675496970719183 3.625797865682618 -0.270576893776020 1
-3.734485019943700 3.681417031935093 -0.458787829823673 5
-2.444674386749033 2.409093770545622 -0.421424189495000 4
-2.447620980199698 2.410313984425329 -0.544079069409923 4
-2.374664782522176 2.336837604268033 -0.647605730307993 36
-2.264435778302468 2.227586678261524 -0.733340437161000 1
-6.425639855887292 6.387622030990761 2.427722643061645 14
-7.424182278133562 7.375105800495100 2.415974323653110 15
-8.784814951137092 8.720653769910712 2.406101431698230 16
-8.947152792167666 8.878706071370093 1.996416642843426 8
-2.622154767523770 2.597557271952230 0.193433694273920 1
-1.682626108565783 1.665678670445213 0.041327298443487 67
-5.065225642691083 5.033499457729935 -0.124645086775079 38
-3.677625148470187 3.652039687661446 -0.271623612900878 1
-3.711713821087526 3.684604776166275 -0.457567649425205 5
-2.446537171507122 2.426973540569418 -0.423130360302672 4
-2.441017516771755 2.419808029634556 -0.544391938340003 3
-2.372071292765942 2.350640160894582 -0.649132202271005 36
-2.254267014245581 2.232341136049206 -0.732440632943624 1
-6.405787956043971 6.410261601463202 2.428240281151850 14
-7.398393123974575 7.400976101202777 2.415974323653110 14
-8.673789249299777 8.670762053993800 2.383967588234551 1
-8.941418815462466 8.932060282835680 2.001735414654795 6
-1.668304248652016 1.663071331823132 0.041117869566240 67
-4.939647251929105 4.941371815108336 -0.121957416183737 64
-3.650731991296714 3.650731991296712 -0.270576893776020 1
-3.705112118041778 3.702526364310465 -0.458264895367187 3
-2.440859361736438 2.438304637207183 -0.423617837676293 4
-2.435351980243610 2.431105194135561 -0.545017676200164 2
-2.361483395669344 2.355720241355214 -0.648368966289499 36
-2.257500075909282 2.251204732305940 -0.736039849813126 1
-6.384733711246197 6.433954181232204 2.428757919242055 14
-7.377929370807053 7.429617670746449 2.417324029979174 14
-8.138494644415873 8.189791637405015 2.244295403618920 1
-8.907400328994614 8.960415360934197 2.001109676794633 6
-1.667014716852062 1.672843875669993 0.041222584004864 69
-4.881513174172798 4.917428331417968 -0.120945176610375 39
-3.638605654783730 3.662818181882686 -0.270576893776020 1
-3.686547719811916 3.709784057832619 -0.457567649425205 1
-2.435559725443592 2.449200584995755 -0.424105315049913 4
-2.438423834896592 2.450369434129477 -0.547520627640808 2
-2.361556473172208 2.372297265028663 -0.650658674234018 36
-2.241770483603452 2.250394832483593 -0.733340437161000 1
-6.366304047904515 6.460329869452919 2.430310833512670 14
-7.345176618094617 7.451058060297115 2.415524421544422 15
-7.766493139807565 7.872949090365183 2.149654141912154 1
-8.878843881561608 8.994264987011048 2.001735414654795 6
-9.661953100219030 9.784138102641338 1.688377883534913 1
-2.961945656899327 2.997309001005950 0.368668791822594 1
-3.013769033574750 3.047622582677452 0.224625924194715 1
-1.665091221664705 1.683207437584121 0.041327298443487 67
-4.847472281809376 4.917349070744609 -0.120526318855880 36
-3.625156315223956 3.676129735842628 -0.270576893776020 1
-3.698765930481737 3.748156514668288 -0.460705256164121 1
-2.419593704844793 2.451047369744978 -0.422886621615862 3
-2.465520738673286 2.495828272108379 -0.555655219822900 6
-2.353261222956523 2.380526182627110 -0.650658674234018 33
-2.241728816004631 2.266910067687192 -0.736039849813126 1
-6.347767994294979 6.486655240015592 2.431863747783285 14
-7.328608405056516 7.483728504766773 2.418223834196549 8
-7.455902719053761 7.608402529285492 2.070659217826264 3
-8.836331245275847 9.013918109334725 1.999232463214151 6
-9.490441256525989 9.674416333556229 1.664004014853884 13
-2.387686383891258 2.433122785227329 0.298246951682486 2
-2.991917284265859 3.046723756676136 0.223788548894828 1
-1.663705164494499 1.692998675115509 0.041432012882111 69
-4.237159587462252 4.328355865671645 -0.105726678197064 7
-3.593378685555421 3.668156571053093 -0.269111487001217 1
-3.674503899423072 3.749660613301025 -0.459310764280159 1
-2.414232207376089 2.461892203402257 -0.423374098989482 3
-2.415723441963944 2.461693373595898 -0.546269151920486 2
-2.340811309613083 2.384523057149261 -0.649513820261759 37
-2.220542671541460 2.260429662646027 -0.731540828726249 1
-2.392124955518354 2.422375753721654 0.418011847879656 1
-2.393809849675956 2.440214578348297 0.419718018687328 1
-6.322393997166341 6.506002696451936 2.430828471602875 14
-7.197895362515253 7.404343403379882 2.384031273936281 4
-7.237681279134264 7.440072457245008 2.017614317111585 6
-8.795167630300178 9.034799615076901 1.997042380703587 4
-9.457688863183479 9.711979892870321 1.664491492227504 19
-2.437580467622868 2.501372751194046 0.305568034073290 15
-2.380270186179741 2.440857452080673 0.178674954613410 2
-1.654696103328629 1.696222265438946 0.041362203256362 69
-4.226206594538959 4.347421481362051 -0.105831392635687 46
-3.613328147392941 3.715666873143039 -0.271623612900878 1
-3.683625120835972 3.785310263637590 -0.462099748048084 1
-2.410731433608935 2.476413906357851 -0.424349053736724 3
-2.412198254774515 2.476190772531591 -0.547520627640808 2
-2.333843940774795 2.394085290762915 -0.649895438252512 36
-2.225848297400094 2.282504917069879 -0.736039849813126 1
-6.298303799701584 6.526642207075210 2.430310833512670 14
-6.806447056277348 7.048282255985774 2.262107802481907 2
-7.188412203200083 7.438620689657018 2.010745193278029 6
-8.770441489940952 9.072546678242672 1.998606725353990 6
-9.433712015199543 9.751849831505201 1.665953924348366 24
-2.974733040699438 3.073977667401113 0.374246759358444 23
-2.973353236551300 3.070406402212417 0.223997892719800 23
-1.646278902292504 1.698828041355229 0.041292393630613 69
-4.219338638463911 4.370779426845787 -0.106040821512935 47
-3.642698876905103 3.769491017762448 -0.458613518338177 1
-2.402506094141772 2.484394563712534 -0.424349053736724 2
-2.395731451818942 2.475659119397922 -0.545643414060325 2
-2.325472804990477 2.402217340830821 -0.649895438252512 36
-2.234537906953434 2.306669684508025 -0.741438675117379 1
-6.277962918547165 6.548886816474353 2.430828471602875 14
-6.528226743114939 6.807571902848361 2.177526206048613 3
-7.165121472398844 7.466500661272780 2.011508429259535 6
-8.744412333650690 9.105855006741427 1.999545332144231 6
-9.394113361848449 9.778993975636062 1.664978969601125 21
-2.968693661076162 3.086006990455686 0.224416580369743 30
-1.638952263651641 1.703123394557075 0.041257488817738 64
-3.685369624660999 3.839042123621618 -0.465585977757990 2
-2.393819301852687 2.492765739228270 -0.424349053736724 3
-2.395287607849843 2.492552594829002 -0.547520627640808 2
-2.325658960704826 2.418406279675379 -0.652185146197030 33
-2.188644097092192 2.275132349222474 -0.728841416074123 1
-6.264388779267193 6.580555674304300 2.434451938234310 12
-6.262327589794745 6.573793989644715 2.096093924376134 6
-7.144386196120916 7.494483080384741 2.012653283231795 6
-8.707120667154413 9.130604982748460 1.998293856423909 4
-9.367115249578811 9.815836664444676 1.665953924348366 21
-9.370249546776064 9.815690461342465 1.187235527708600 21
-2.948246066247541 3.086241509673870 0.223683876982342 25
-1.636059104787135 1.711439937609989 0.041327298443487 67
-3.561751759657978 3.737594486715730 -0.270576893776020 1
-3.669196922419736 3.848998850118862 -0.465237354786999 2
-2.382799405893663 2.497817518425994 -0.423861576363103 3
-2.391100850625049 2.504768490361430 -0.548459234431049 3
-2.317202978691840 2.426509610659232 -0.652185146197030 33
-2.202629056901877 2.304919646577429 -0.736039849813126 1
-2.965903781891476 3.085261677438386 0.374421070843939 16
-2.964746406298989 3.105683885507710 0.375641251242407 2
-6.136538803226806 6.491476957074216 2.393558529108112 3
-6.054754531846974 6.402723397833619 2.034457335485915 6
-7.119568405807204 7.523470185704923 2.013416519213301 6
-8.661613278035624 9.146599771371632 1.995165167123105 6
-9.339266634232112 9.858749688925958 1.667416356469228 21
-9.344153586907421 9.857014612281361 1.188281396621572 21
-2.941578819856089 3.100861007951041 0.223997892719800 29
-1.636657872107543 1.724677537511559 0.041501822507860 69
-4.944902655421424 5.229087944911015 -0.125622421535567 0
-3.564499407650074 3.768034874639558 -0.271832956725850 1
-3.674914906302766 3.882039925835376 -0.467677715583934 2
-2.375431069078187 2.507560949968011 -0.424105315049913 3
-2.395491943631216 2.527853854634624 -0.551587923731854 3
-2.303315090525194 2.428885111198747 -0.650658674234018 36
-2.172707470237170 2.290356399993386 -0.728841416074123 1
-5.809736474580197 6.188905218344790 2.274501768360953 1
-6.020146521513245 6.408563107383292 2.029958314399038 7
-7.094580533805359 7.547038158742081 2.013416519213301 6
-8.637752377256781 9.185412979222470 1.997042380703587 6
-9.306522491675015 9.889665606385586 1.667416356469228 21
-9.304226625899597 9.883768854994313 1.187584150679590 21
-2.932106377097565 3.112563932501471 0.224102564632285 25
-1.632301318171895 1.731550492182592 0.041536727320735 67
-4.948521777221858 5.269640462233100 -0.126180898541560 0
-3.541042746484738 3.768190767784378 -0.270995581425963 1
-3.666800248011853 3.900650822182860 -0.468374961525915 2
-2.366663575960454 2.515837474871636 -0.424105315049913 3
-2.381680120310851 2.530030355253894 -0.550336448011532 3
-2.294822666690625 2.436910383679909 -0.650658674234018 36
-2.181138209383060 2.314567644185386 -0.734240241378375 1
-2.953887484199133 3.116013860857611 0.375641251242407 1
-5.581285900525041 5.987291082840665 2.193232588198761 3
-5.997946564940902 6.432010220642654 2.030408216507726 7
-7.053477229462757 7.558636745453014 2.009600339305770 6
-8.604288466379149 9.214064642932973 1.996729511773507 6
-9.278343121810908 9.932413025188708 1.668878788590090 19
-9.272390320666117 9.919097411887039 1.187932773650581 21
-1.619112207428070 1.730221034405483 0.041362203256362 69
-4.987376288222896 5.348306276609279 -0.127646900682292 0
-3.540831675702256 3.795748678594852 -0.272042300550822 1
-3.740174516901204 4.006638079778497 -0.479530896597615 2
-2.368265417563932 2.536101704902459 -0.426055224544396 3
-2.352160361162945 2.517093343534641 -0.545643414060325 2
-2.291666040183462 2.450641812944073 -0.652185146197030 33
-2.154002399365915 2.302622564219608 -0.727941611856747 1
-5.429119111978038 5.864968297933043 2.141468779178257 7
-5.975259967600543 6.450435145119482 2.029958314399038 6
-7.028373104338064 7.581985358893768 2.009600339305770 6
-8.574759286420766 9.246939990434763 1.997355249633668 6
-9.242654481346936 9.960216291381164 1.668391311216469 19
-9.245842698615713 9.960164987588422 1.188978642563553 21
-2.157241718169603 2.322281249198773 0.166114325115104 12
-1.618811645405422 1.741439190850005 0.041501822507860 69
-4.911612453493292 5.304058963429127 -0.126180898541560 0
-3.636770478154000 3.923232319866668 -0.468026338554924 2
-2.359842379716609 2.543941211689428 -0.426055224544396 3
-2.342456523590495 2.523431796509723 -0.545330545130245 3
-2.285769594500872 2.461503559019518 -0.652948382178536 36
-2.154314072787151 2.318318047442124 -0.730641024508874 1
-5.216429240847948 5.674811718180947 2.065375979918116 7
-5.946301584800269 6.466554393649147 2.028158705964287 6
-7.008512835020885 7.616362798549106 2.011890047250288 6
-8.537076802639426 9.271002609729148 1.996103773913346 6
-9.206086382575229 9.994025412676329 1.668391311216469 19
-9.216420470879337 9.998238093997607 1.189675888505534 22
-2.142351279442898 2.322457023842790 0.165590965552674 13
-1.608349740157226 1.742951919239222 0.041397108069236 64
-9.208171780706962 10.013811583020603 -0.237457441985679 0
-3.644643576860845 3.959357287478995 -0.470815322322849 2
-2.347813156312969 2.549652814720413 -0.425567747170775 3
-2.339884984731342 2.539263719616500 -0.546894889780647 3
-2.279825210351481 2.472353965460529 -0.653711618160043 33
-2.148445156231305 2.329063207938495 -0.731540828726249 1
-5.135375721763069 5.625925646704804 2.041046989678478 11
-5.919567857826376 6.480482172218990 2.026359097529536 6
-6.991165046793079 7.648256481202897 2.014179755194807 6
-8.503329934194181 9.299288289639335 1.995790904983266 6
-9.180934902829524 10.033285941598042 1.669853743337331 19
-9.188190304560820 10.037696733123440 1.190547445933011 21
-2.118042479889795 2.312247844234869 0.164334902602844 21
-1.610668451590554 1.757120381514655 0.041606536946484 64
-9.166418958918648 10.038509664608563 -0.237282917921307 7
-3.498863591260326 3.829059468510586 -0.271832956725850 1
-3.649620039846414 3.992643563248075 -0.473255683119784 2
-2.338005462608924 2.555959691508840 -0.425324008483965 2
-2.336786746869680 2.552837492211812 -0.548146365500969 3
-2.265877794669048 2.474505274737900 -0.652185146197030 33
-2.148609189919989 2.344795474435243 -0.734240241378375 1
-2.236994564996475 2.449821643657783 -0.057907084558907 1
-5.113111460511322 5.640954476077471 2.040011713498068 11
-5.903629995908688 6.510796758743631 2.029058510181662 6
-6.953850965309380 7.663651518126566 2.011508429259535 8
-8.461522097748869 9.318676705946167 1.993600822472702 6
-9.153442376181157 10.077154167688150 1.671559914145003 19
-9.150415964215860 10.066759679442209 1.190198822962020 21
-2.095175177341486 2.303374940778254 0.163183511565499 23
-1.604217464898870 1.763011974263579 0.041606536946484 67
-9.127292466291870 10.066001129274941 -0.237178203482683 28
-3.503591901101739 3.862568548911743 -0.273298363500653 1
-2.299237468833354 2.533039058019597 -0.299292820595458 1
-2.319280522232010 2.554224302366117 -0.423617837676293 1
-2.327414433977419 2.561385096876620 -0.548146365500969 3
-2.254584779221459 2.479494498520633 -0.651421910215524 36
-2.132133003633327 2.344005305182571 -0.731540828726249 1
-5.085635241077944 5.650152972312722 2.036905884956838 11
-5.882006955648246 6.530338102729830 2.029058510181662 7
-6.925770271775721 7.683752592991069 2.010745193278029 8
-8.444816009532648 9.365760971320052 1.997355249633668 6
-9.119974999997762 10.107452668839930 1.671559914145003 21
-9.117890621158454 10.101597269717949 1.190547445933011 21
-2.067040779101248 2.288442159165450 0.161613432878211 20
-1.595680470062268 1.765355074126829 0.041536727320735 64
-9.112170819450970 10.120090949343631 -0.237701775675801 41
-3.456003323263617 3.835587200696311 -0.270576893776020 1
-2.328082104398437 2.581063937467572 -0.426786440604827 2
-2.313613467998068 2.563223497908399 -0.546894889780647 3
-2.249863120821286 2.491720802145736 -0.652566764187783 32
-2.145252074840107 2.374197514421771 -0.738739262465253 1
-5.066870696073925 5.666986480052298 2.036905884956838 11
-5.851381073888179 6.542115279938327 2.026359097529536 7
-6.893669420065447 7.702029736165121 2.009218721315017 8
-8.403168096230223 9.381941923444877 1.994852298193024 6
-9.085962521460559 10.140704196701147 1.671803652831813 21
-9.088332578515598 10.136228011013310 1.191070380389496 22
-2.056772996881803 2.292310964798349 0.161404089053239 21
-1.585501345133393 1.766449793480907 0.041432012882111 69
-9.071458147560541 10.145873806572430 -0.237562156424303 8
-3.433271266546598 3.837208428430625 -0.269844190388618 1
-2.321707165190392 2.592132102752277 -0.427273917978447 2
-2.304652052942572 2.571283900000038 -0.546894889780647 3
-2.246831386849811 2.505013923611670 -0.654093236150796 32
-2.113525731504360 2.355562921166316 -0.730641024508874 1
-5.057607312268274 5.698523154777402 2.041564627768683 11
-5.825921033362731 6.559586478136950 2.025459293312160 6
-6.870654994160496 7.730448515214082 2.010363575287276 8
-8.373975258866018 9.418583125272544 1.996103773913346 6
-9.006965719335923 10.123417124378310 1.663760276167074 19
-9.021098085296581 10.132177101236472 1.186886904737609 21
-2.028431786192215 2.277462091428834 0.159834010365950 40
-1.585978218443257 1.779437547852375 0.041606536946484 67
-3.700161071025503 4.167591715345011 -0.097279713481418 12
-3.514041320816438 3.955178336433764 -0.277275896175116 1
-2.453074358902390 2.759082042586016 -0.322999182622821 1
-2.296813794105204 2.582421010563693 -0.424349053736724 2
-2.294349248330471 2.577837392305480 -0.546582020850567 3
-2.241990849610752 2.517239773147077 -0.655238090123055 33
-2.113068572663060 2.371656174585223 -0.733340437161000 1
-5.037404963646090 5.713814349290513 2.041046989678478 11
-5.805566270190424 6.582805867583106 2.026359097529536 6
-6.843628834729130 7.754384480255167 2.010363575287276 6
-8.327973509454369 9.432947977061037 1.992975084612541 6
-8.979459467661822 10.163721611713923 1.665222708287935 19
-8.984355551144922 10.162112209163421 1.186712593252114 21
-2.018221448929644 2.281184374160057 0.159624666540979 32
-1.579757159926501 1.784962804022615 0.041606536946484 67
-3.680301229304194 4.174482322836575 -0.097140094229920 12
-3.645560503101059 4.132168082963615 -0.288789806548564 8
-2.443428420297259 2.767628060796579 -0.322999182622821 1
-2.296983917757590 2.600837908675090 -0.426055224544396 2
-2.285336938628037 2.585830460688625 -0.546582020850567 3
-2.227987843851198 2.519167975331115 -0.653711618160043 33
-2.089281782800572 2.361503470627360 -0.727941611856747 1
-5.009794397974132 5.722642039632532 2.037941161137248 11
-5.785120361026458 6.605963045137704 2.027258901746912 6
-6.819107184304755 7.781178969665147 2.011126811268782 8
-8.294995639383979 9.461960560830638 1.992975084612541 6
-8.951781489103343 10.203957311459472 1.666685140408797 19
-8.948828424011786 10.193411551517752 1.186712593252114 21
-2.011564528087100 2.289715853065384 0.159729338453465 36
-1.580117174935441 1.797976656248586 0.041781061010857 69
-2.589572492674285 2.958044828595457 -0.068622862111399 7
-3.682442156064033 4.203458308623498 -0.292872011135514 24
-2.368082101913724 2.701231010506063 -0.314283608348055 1
-2.286582442916073 2.607347562228656 -0.425811485857585 2
-2.288023555023045 2.607154430355266 -0.549397841221291 3
-2.216589745499550 2.523979459178833 -0.652948382178536 33
-2.101604616524201 2.392206334989865 -0.735140045595751 1
-4.992587679258841 5.745340040527545 2.039494075407863 11
-5.768419727986034 6.633469186347687 2.029508412290350 7
-6.788037897428292 7.800491653377993 2.009981957296523 8
-8.260978510322090 9.486436324167890 1.992349346752381 6
-8.918716305542246 10.238136301288987 1.667172617782418 19
-8.915810704837742 10.227590387986783 1.187061216223104 21
-2.009722218511915 2.304599678295164 0.160252698015894 42
-1.561998119474281 1.789921330532626 0.041466917694986 64
-2.444103636492576 2.811619607395041 -0.065027666385318 18
-8.917684865515888 10.251393583853023 -0.712083020641494 5
-2.327242430958772 2.673414403949923 -0.310100132696168 1
-2.291807261759153 2.631780681765278 -0.428492611412499 3
-2.268526675185561 2.603211229136691 -0.546894889780647 3
-2.212927255172853 2.537620071762033 -0.654474854141549 33
-2.100927775530940 2.408338725315668 -0.737839458247877 1
-4.978812565448266 5.770045533407782 2.042082265858889 11
-5.738861434187235 6.646189493573467 2.027258901746912 6
-6.747931656777913 7.809283784642974 2.006165777388992 6
-8.231320677509290 9.522628401058405 1.993600822472702 6
-8.880326858442412 10.266203364923511 1.666685140408797 19
-8.890487216987852 10.270701342870572 1.188455708107067 21
-2.004684214498500 2.314270756257529 0.160462041840866 44
-1.563597887638925 1.804430305638731 0.041676346572233 67
-2.337582841654857 2.708115787141453 -0.062444710232600 18
-8.867485137440662 10.265833602552563 -0.710931629604149 5
-2.315290453013417 2.678507069321995 -0.309751509725177 1
-2.280009848173137 2.636761403212256 -0.428005134038878 3
-2.262011107134643 2.614101549960774 -0.547520627640808 3
-2.206626153662007 2.548297483267350 -0.655238090123055 33
-2.046575195846399 2.362631027857026 -0.721642982335119 1
-4.958641015211220 5.787389679443546 2.042082265858889 11
-5.710553148093914 6.660263763090024 2.025459293312160 6
-6.729579968106363 7.843220699761632 2.008837103324264 6
-8.197123579998241 9.546874636568267 1.992975084612541 6
-8.849610717316073 10.303162425148342 1.667660095156038 17
-8.855880321521850 10.303183314267754 1.188630019592562 21
-1.992686460431914 2.316711738681900 0.160148026103408 45
-1.557289724465463 1.809877287611144 0.041676346572233 67
-2.316403360273660 2.702594173228290 -0.062130566916729 27
-8.882308132054693 10.355848659774361 -0.715013834191099 2
-2.287759492787150 2.665406603298395 -0.307311148928243 1
-2.261739810759336 2.634161388824596 -0.426298963231206 3
-2.252872408913988 2.621981516231932 -0.547520627640808 3
-2.205397343380899 2.564916324673552 -0.657527798067573 33
-2.071355634596210 2.408173091422427 -0.733340437161000 1
-4.939660860211950 5.806134705505661 2.042599903949094 11
-5.689796250828788 6.683124376510882 2.026359097529536 6
-6.707253847289357 7.872641241869230 2.010363575287276 6
-8.162467235632418 9.573926567580239 1.992662215682461 4
-8.821321015128326 10.343052815150472 1.669122527276900 17
-8.830208942912144 10.346157145848862 1.190024511476525 21
-1.989775951213597 2.329728309139603 0.160566713753352 40
-1.558756368048404 1.824424338492431 0.041885775449480 67
-2.290106882855300 2.690866484406842 -0.061676804349360 42
-2.452719009258534 2.879897733137140 -0.198248602248271 1
-2.288780478964864 2.685507167452750 -0.308705640812205 1
-2.264122161372114 2.655635690441850 -0.428492611412499 3
-2.246270495879883 2.632835053953745 -0.548146365500969 3
-2.187507280549345 2.562147321769388 -0.654856472132302 32
-4.916639078255277 5.818056665253229 2.041046989678478 11
-5.666433129079937 6.702944755965446 2.026359097529536 6
-6.684804268512159 7.902001412898943 2.011890047250288 6
-8.125169252038740 9.597837552881670 1.991723608892220 6
-8.792860561586831 10.382871136536602 1.670584959397762 30
-8.792752191571257 10.375397312835796 1.189850199991029 22
-1.979047945891812 2.333613237400545 0.160357369928380 35
-1.558846685681112 1.837478691507964 0.042060299513853 69
-2.279409335075717 2.697316696161431 -0.061641899536485 39
-2.434913275506984 2.879291484161870 -0.197620570773356 6
-2.281966495819212 2.696521903118167 -0.309054263783196 1
-2.252273237606032 2.660492598824511 -0.428005134038878 3
-2.237066501424191 2.640659961107035 -0.548146365500969 3
-2.179819941841175 2.571265071205890 -0.655238090123055 33
-2.084743278696229 2.458244895908796 -0.744138087769506 1
-4.885349714472488 5.824197162110138 2.036905884956838 11
-5.643000963631625 6.722683462153477 2.026359097529536 6
-6.644552981283150 7.910254801345930 2.008073867342758 6
-8.090345977779522 9.624629095429608 1.991410739962139 4
