ply
format ascii 1.0
element vertex 837
property double x
property double y
property double z
property uchar intensity
end_header
0.135494188748643 2.873147333715390 -0.664055512423089 1
0.096454459593557 1.840460727645627 0.493826738055610 44
0.094623414436024 1.817662005860050 0.420208569514340 40
0.092762734746934 1.793981070223883 0.349180461539077 52
0.091597200273158 1.777455826419313 0.281894906002496 1
0.146116372236505 2.854796042062594 0.350983709006825 1
0.145138444335259 2.845417646013546 0.249265424258302 1
0.143487035958315 2.832475837523256 0.148634115729960 2
0.143475917315589 2.851958314835381 0.049844072784882 1
0.148220864393482 2.837698793254876 -0.049599739094760 1
0.147257902424908 2.838282150228511 -0.148948131467418 1
0.146919115995208 2.841336164446593 -0.248916801287312 1
0.144985574513536 2.823050824280896 -0.347083890017860 1
0.144402272678987 2.830985110024586 -0.448966914665463 1
0.143623061764272 2.825401516804090 -0.549911524675202 1
0.147772222264342 2.927177547945114 -0.676652771466346 1
0.102019605868882 1.830486462491787 0.491238547604584 47
0.101724379366927 1.830940810748529 0.423357884275154 44
0.098807885538585 1.789725799861576 0.348417225557571 51
0.097815561733970 1.783059539085554 0.282833512792737 1
0.155321854848832 2.840393691500504 0.349277538199153 1
0.153708645014629 2.829005064211028 0.247870932374340 1
0.153525043303119 2.843950574902905 0.149262147204876 1
0.151926017543561 2.823484820067339 0.049355405404638 1
0.156742765231766 2.821218742630369 -0.049320500591763 1
0.157164458883873 2.837750832436862 -0.148948131467418 1
0.154917250422944 2.814971412300866 -0.246650751975873 1
0.155491388989158 2.834420203370311 -0.348546322138722 1
0.153853316923246 2.822574010119465 -0.447715438945141 1
0.153097811609879 2.826870092030246 -0.550293142665955 1
0.157989078435741 2.926643893261006 -0.676652771466346 1
0.107951636348104 1.822405310747026 0.489167995243764 49
0.108368209241526 1.840320264709791 0.425607394818593 42
0.104283394062608 1.781548702335522 0.346890753594558 50
0.105304966457016 1.804399470114616 0.286275071023622 2
0.163820392317078 2.824008923038217 0.347327628704670 1
0.162202333706777 2.804582498424180 0.245779194548396 1
0.161846636382947 2.815481804205058 0.147796740430073 1
0.159235021644011 2.787029579279367 0.048727118772896 1
0.166589701497820 2.820654420445058 -0.049320500591763 1
0.165871566005870 2.825251098845725 -0.148320099992503 1
0.164509539122784 2.810435530800390 -0.246302129004882 1
0.163967349678928 2.818035066315075 -0.346596412644239 1
0.163896792691909 2.833880782273714 -0.449592652525624 1
0.162173407181887 2.812598466159648 -0.547621816730684 1
0.167693310645266 2.926103890915656 -0.676652771466346 1
0.114675256728917 1.827801568677393 0.490720909514379 39
0.115964376822203 1.853525275602919 0.428756709579407 38
0.109593337763966 1.761559859104203 0.343074573687028 50
0.112700587461867 1.821765361976831 0.289090891394347 7
0.173192006713496 2.807538915114753 0.345377719210188 1
0.172357104031638 2.809965175929675 0.246302129004882 1
0.171795097712366 2.816893256165216 0.147901412342559 1
0.169448926149307 2.786427233810878 0.048727118772896 1
0.176184877407245 2.816064143163711 -0.049250690966014 1
0.175230593057969 2.808677105894124 -0.147482724692616 1
0.173948684054265 2.803878464349504 -0.245779194548396 1
0.174536475361236 2.829333500906045 -0.348058844765101 1
0.172584434665559 2.805657936007387 -0.445212487504497 1
0.172110073794184 2.813974832515755 -0.548003434721437 1
0.178416891171639 2.925469610132971 -0.676652771466346 1
0.121054776220462 1.827390141737553 0.490720909514379 42
0.122622780430590 1.860908625037125 0.430556318014158 37
0.115947890099937 1.769022952400073 0.344601045650040 49
0.118028234415936 1.805591506557823 0.286587939953703 13
0.181084454285102 2.785159145383498 0.342696593655275 1
0.181520060404036 2.799405347963404 0.245430571577405 1
0.180727064383345 2.802324588498601 0.147168708955158 1
0.179328120580261 2.795827972979913 0.048901642837268 1
0.185618208972394 2.809445951337923 -0.049145976527390 1
0.184019639175118 2.800108737425490 -0.147064037042672 1
0.183865295130207 2.805242311479762 -0.245953506033891 1
0.181570553497350 2.785127497763745 -0.342696593655275 1
0.181887382732659 2.805070198938473 -0.445212487504497 1
0.181551550464291 2.807479425959344 -0.546858580749177 1
0.188117116998936 2.924861873176051 -0.676652771466346 1
0.128425478603823 1.836569908371773 0.493309099965405 53
0.130987616620465 1.877920221529333 0.434605436992347 21
0.123011427644804 1.772481791624928 0.345364281631546 49
0.124645265340644 1.805146783644270 0.286587939953703 30
0.192595731963540 2.796325705100579 0.344159025776136 1
0.191098140683779 2.788782599849837 0.244559014149929 2
0.190725195229641 2.797658100073193 0.146959365130186 2
0.188705364434069 2.775167910412067 0.048552594708523 2
0.195635809308996 2.804757058990717 -0.049076166901641 2
0.195185780720306 2.805358839892562 -0.147378052780130 2
0.193733003810426 2.798586671477190 -0.245430571577405 1
0.192947035046145 2.794311671409109 -0.343915287089326 1
0.193198262641236 2.812234051577855 -0.446463963224819 2
0.190233779427723 2.783290932785007 -0.542279164860140 2
0.190863541935027 2.799687442764267 -0.647859036510331 1
0.134552550877369 1.832257103538828 0.492273823784994 49
0.129315767459006 1.777938371043719 0.346509135603805 48
0.129659060294302 1.786968917533537 0.283772119582979 42
0.201581691731205 2.791711784618427 0.343671548402516 1
0.199543344449133 2.770213387295448 0.242990210780471 1
0.199918486796255 2.789006710009986 0.146540677480243 1
0.198760776467450 2.786494647185578 0.048762023585770 1
0.204256198565561 2.788102269488407 -0.048796928398645 1
0.203761449281778 2.794736297196307 -0.146854693217700 1
0.202344459990996 2.781996245741322 -0.244036079693443 1
0.202642179486188 2.799596209270139 -0.344646503149757 1
0.201387527371211 2.795815745687631 -0.443961011784175 1
0.200088828335218 2.784568141656996 -0.542660782850893 2
0.209041994656243 2.923440861611032 -0.676652771466346 1
0.140775668174801 1.833727020674790 0.492791461875200 38
0.134924133274893 1.769645851589330 0.344982663640793 48
0.135733636243531 1.788498839612048 0.284084988513059 52
0.210426099483033 2.779114567158052 0.342209116281654 1
0.207979938044279 2.759602671231790 0.242118653352994 1
0.208717854115250 2.782353432037182 0.146226661742785 1
0.206247668861064 2.755872085365469 0.048238451392652 1
0.212737162255237 2.777440325478181 -0.048622404334272 1
0.212298177520355 2.778076389642593 -0.146017317917813 1
0.210964297207901 2.773363351112157 -0.243338833751462 1
0.211061364882484 2.781057198688637 -0.342452854968464 1
0.209359932857565 2.771458565695732 -0.440206584623210 1
0.208438475018312 2.772142944282738 -0.540371074906375 1
0.211956689597679 2.825529350353030 -0.654157666031959 1
0.146557326995137 1.825521826456595 0.490720909514379 39
0.220638342547886 2.760355828418517 0.639310896445264 1
0.140791748534640 1.769188696926324 0.344982663640793 47
0.142288557417602 1.791952501802448 0.284710726373220 62
0.217137789230088 2.746738793524714 0.338309297292689 1
0.217141478728403 2.752901212689356 0.241595718896508 1
0.216865252227311 2.761696624656271 0.145179942617926 1
0.215385336006087 2.755172990728674 0.048238451392652 1
0.221951909292720 2.770700883121183 -0.048517689895648 1
0.220556714734698 2.765411486736298 -0.145389286442898 1
0.221750237017708 2.786512824478044 -0.244559014149929 1
0.219028244697953 2.764510873942816 -0.340502945473982 1
0.218238609579219 2.766810544371987 -0.439580846763049 1
0.218267824993766 2.773355671690343 -0.540752692897128 1
0.220107571268251 2.809268652388683 -0.650558449162458 1
0.153735280406060 1.834624647019055 0.493309099965405 48
0.230104516401205 2.751760757985866 0.637511288010513 1
0.149230184172775 1.792138584118578 0.349562079529830 37
0.147073667744162 1.773727317889118 0.281894906002496 57
0.227694705833622 2.751859489734276 0.339040513353120 1
0.226913174323740 2.754112137101068 0.241770030382004 1
0.225687526182708 2.750969940494487 0.144656583055497 2
0.224829477647299 2.746392944996674 0.048098832141153 1
0.231788742654667 2.771901986781935 -0.048552594708523 1
0.230690973083939 2.764584531231630 -0.145389286442898 1
0.229660782833475 2.763880783372107 -0.242641587809480 1
0.228010955790834 2.749841404429546 -0.338796774666310 1
0.227727824792256 2.758117365214301 -0.438329371042727 1
0.228108179266672 2.774533531268192 -0.541134310887881 1
0.230083901418325 2.804558618277793 -0.649658644945082 1
0.159466234620979 1.826378714660009 0.491238547604584 49
0.238890763930278 2.747099747299233 0.636611483793138 1
0.155511113530884 1.795545729543045 0.350325315511336 13
0.152924026313673 1.769267050851435 0.281269168142335 58
0.158844054089674 1.845266939881840 0.227408194794005 1
0.236525437320087 2.753303283314358 0.241770030382004 1
0.233926809066329 2.734245468768413 0.143819207755610 2
0.233765844068359 2.743639806723323 0.048063927328279 1
0.240421536767949 2.759123125736789 -0.048343165831275 1
0.238821296274582 2.751865652154157 -0.144761254967983 1
0.240510540311138 2.776956988864923 -0.243861768207948 1
0.235763736442225 2.733248186682416 -0.336846865171828 1
0.237210967656019 2.761283283039202 -0.438955108902888 1
0.235611682035460 2.748291351423795 -0.536173277008091 1
0.238719777372181 2.796013507961519 -0.647859036510331 1
0.164966749977610 1.816191289444899 0.488650357153559 45
0.248605899460503 2.742324154290371 0.635711679575762 1
0.161914503280585 1.793008394345387 0.349943697520583 6
0.158568069308220 1.762820167733477 0.280330561352094 63
0.158506283103254 1.765586721592266 0.217658647321593 1
0.243295483726418 2.720709349959596 0.238981046614079 1
0.244001274910809 2.739380402888105 0.144133223493067 2
0.244705547712702 2.752723786856550 0.048238451392652 1
0.249148497135161 2.748309445518395 -0.048168641766902 2
0.248545833459379 2.746993577286792 -0.144551911143011 2
0.248056338387478 2.752288376132647 -0.241770030382004 2
0.246847070525607 2.744228369348705 -0.338309297292689 2
0.246977410484693 2.756460324617708 -0.438329371042727 2
0.242934786189062 2.722030904014478 -0.531212243128301 1
0.245508213575395 2.756298667957139 -0.638860994336577 1
0.171305435638534 1.815604383166771 0.488650357153559 45
0.257880783939197 2.743424856500291 0.636161581684450 3
0.167676390293914 1.790506906072351 0.349562079529830 1
0.165272013481624 1.768156332627929 0.281269168142335 57
0.166568957297737 1.788769883716500 0.220583511563317 1
0.253712971564969 2.729762710638813 0.239852604041555 1
0.252641305983849 2.728568228484052 0.143609863930638 2
0.251812188308276 2.729993510761042 0.047854498451031 2
0.259302848556841 2.753395670042895 -0.048273356205526 3
0.257280684891151 2.742177213901752 -0.144342567318039 3
0.257662106458629 2.751405730041352 -0.241770030382004 3
0.255761503422400 2.741418197111051 -0.338065558605879 2
0.254471514391689 2.737924066796642 -0.435513550672003 2
0.253704395888831 2.734850345849042 -0.533883569063572 2
0.254288421593088 2.751588435530537 -0.637961190119201 1
0.179523835204378 1.834222000024770 0.493826738055610 44
0.191760549533487 1.962779903898713 0.455300933991983 1
0.190025722835173 1.952063793205536 0.381236372762337 1
0.171252319850412 1.765602503645372 0.280956299212255 52
0.171784927130242 1.774316389067800 0.218877340755645 1
0.261709610370120 2.712994988676934 0.238458112157593 2
0.263883983671316 2.745562599568012 0.144551911143011 7
0.261816423349207 2.729052236114697 0.047854498451031 9
0.269106854656429 2.754463979197097 -0.048308261018401 13
0.266554108571568 2.733264499470349 -0.143923879668096 7
0.266493964313399 2.742557361220885 -0.241072784440022 4
0.267149080168973 2.754293110919061 -0.339771729413551 5
0.263364691621237 2.725175694585782 -0.433636337091520 5
0.263249259464994 2.733948090596285 -0.533883569063572 3
0.263253149910396 2.738999133470405 -0.635261777467075 1
0.187484493712798 1.848960138071405 0.497967842777250 44
0.636339391313131 6.297439396475502 1.461282049017747 0
0.177809511648856 1.768924909080469 0.281582037072416 51
0.177667827777248 1.773736973927265 0.218877340755645 5
0.272962202424849 2.729907455550452 0.240026915527051 2
0.274456279993731 2.754561837425646 0.145075270705440 9
0.273828357495751 2.758017692639395 0.048378070644150 15
0.278921476099912 2.755497368622888 -0.048343165831275 10
0.179053427527331 1.778181158593667 -0.156357402489299 1
0.276082983293009 2.751416894955959 -0.339527990726741 4
0.175685929095239 1.760146020919938 -0.343837809668534 1
0.174355831451265 1.753011635648714 -0.406711506253708 1
0.186513269867642 1.845801202415233 0.428306807470719 0
0.194017361275762 1.852170929151550 0.499003118957660 44
0.652642527841378 6.240911000018298 1.448684789974491 2
0.191097774427519 1.833564449773668 0.358339293317151 1
0.183470417600527 1.766360739180422 0.281269168142335 49
0.183653500923782 1.771131485701964 0.218633602068835 9
0.280374978853044 2.713132587548825 0.238632423643088 1
0.282770787837876 2.745689559022333 0.144656583055497 9
0.282635918633167 2.749088210535563 0.048238451392652 6
0.186230525820697 1.783843900199135 -0.093995377412327 1
0.185361476831967 1.781541002753266 -0.156706025460289 1
0.186110403946174 1.794825552400318 -0.221558466310558 1
0.185497990169449 1.791968079465114 -0.285336464233381 1
0.180111548265481 1.745883518611277 -0.341166483733262 1
0.181272478938696 1.760146288680408 -0.408511114688459 1
0.198817715755323 1.836117398961217 0.494862014236020 38
0.198027271776853 1.834801455026575 0.426057296927280 1
0.194237235724476 1.805592774516316 0.352996641446608 1
0.189845989438238 1.767673628442866 0.281582037072416 46
0.190582217239073 1.780381809229231 0.219852295502886 20
0.194146697984773 1.816676380896437 0.159843632199205 1
0.291084048407450 2.732769630446798 0.144028551580581 29
0.192357758928261 1.779360156631040 -0.031239807522737 1
0.191075092066678 1.773287706795143 -0.093472017849898 1
0.190726676441843 1.772959276353142 -0.156008779518308 1
0.189550146415039 1.773665365221261 -0.282520643862657 1
0.183705329501237 1.721818079145665 -0.336587067844225 1
0.186696204771330 1.755659860764615 -0.407611310471083 1
0.191131026010689 1.827695364291073 0.424257688492529 0
0.189411518707328 1.766532067317614 -0.218146124695214 1
0.203723051278585 1.821972998626786 0.491238547604584 37
0.206048084892582 1.845683578163587 0.428756709579407 7
0.198248089022947 1.781454218365859 0.348417225557571 1
0.196232959912375 1.768963506524053 0.281894906002496 42
0.195358190941980 1.763887107329639 0.217902386008404 16
0.198737831334107 1.800144756493204 0.158449140315243 1
0.302369220162291 2.747619099862190 0.144865926880469 42
0.190876750232818 1.737279310007644 0.030506806452372 1
0.198789576434460 1.780665211843409 -0.031274712335612 2
0.194918273546768 1.748755867552534 -0.092215954900067 2
0.196474265327576 1.768322306234826 -0.155660156547317 2
0.192793042551013 1.743507574378389 -0.277827609911450 2
0.193156009483184 1.752389310089708 -0.342692955696275 3
0.209638939481796 1.817412519968427 0.490203271424174 33
0.210163779178513 1.827566318470308 0.424707590601217 22
0.203260080264892 1.772985094365237 0.346890753594558 3
0.204428418889031 1.785930800405930 0.284710726373220 39
0.200756251107068 1.759284992587831 0.217414908634783 31
0.199832766094412 1.753909678222399 0.154439976148850 1
0.311056744771995 2.738608898074081 0.144447239230525 46
0.197986635404122 1.748558779420506 0.030716235329619 1
0.204317649403694 1.774000769270761 -0.031169997896988 3
0.201627596425213 1.756036769364304 -0.092634642550011 4
0.204914933466127 1.787419950709524 -0.157403271402271 7
0.201514115780522 1.763194433780075 -0.217902386008404 2
0.200138994898064 1.756597413937480 -0.280017692422013 5
0.201268969190331 1.769260451033733 -0.346127517613052 11
0.193915117770216 1.748069064707590 -0.215952476513921 1
0.215753546586363 1.814751329422772 0.489685633333969 39
0.216171556900407 1.820978297456980 0.423357884275154 39
0.212064588317170 1.791724659978600 0.350706933502089 10
0.210892731180061 1.787168096754135 0.285023595303301 18
0.206041552686589 1.748680095128717 0.216196215200732 33
0.208278371339694 1.772989272984070 0.156183091003803 3
0.317594098354291 2.711718318881629 0.143086504368208 45
0.204161827853287 1.745835216738775 0.030681330516744 2
0.211451751584642 1.781219768761228 -0.031309617148487 25
0.210919110101178 1.784715154627656 -0.157228959916775 33
0.209836268458600 1.778215315590742 -0.219852295502886 7
0.210038067929252 1.785279757435394 -0.284710726373220 28
0.205385188324586 1.750998133218030 -0.342692955696275 25
0.221147839793693 1.806317016960792 0.487615080973149 35
0.219611395814976 1.798973256087065 0.418408961079589 39
0.219191094395220 1.800755927206975 0.352615023455855 46
0.215223088866720 1.770733494292718 0.282520643862657 7
0.214227518616012 1.767693954935082 0.218633602068835 33
0.216859583589351 1.792031036145443 0.157926205858757 9
0.211383210018731 1.757060869607607 0.030890759393992 7
0.216697431465766 1.772531143429430 -0.031169997896988 71
0.213398683456238 1.750621194334951 -0.092425298725039 37
0.217629123952781 1.787923619671376 -0.157577582887766 61
0.213340183104081 1.757803380294977 -0.217414908634783 24
0.214770536537218 1.774768081511720 -0.283146381722818 48
0.209847428166057 1.736627003183690 -0.340021629761003 33
0.224071329106486 1.778700222673244 0.480368147710279 35
0.226933175993434 1.803956760782077 0.419758667405652 42
0.221879943798898 1.768772656245822 0.346509135603805 38
0.224099834997906 1.791532551456357 0.285962202093542 7
0.222673385435998 1.782655176371714 0.220583511563317 42
0.220897257634509 1.773469132591925 0.156357402489299 16
0.216385474944314 1.742204382313280 0.092006611075095 5
0.219052371520447 1.766196763300998 0.031065283458365 48
0.219888325936158 1.747955231548260 -0.030751140142494 46
0.219066778965305 1.743882237394529 -0.092111282987581 43
0.219411251270764 1.751568153564953 -0.154439976148850 46
0.221506163695968 1.770797834872369 -0.219121079442455 32
0.217850921821606 1.746526373201190 -0.278766216701691 49
0.215181145879418 1.730039191836141 -0.338876775788744 45
0.228293624484761 1.762580444843840 0.476227042988638 32
0.233413344312192 1.807059672769214 0.420658471623028 45
0.225988448214436 1.754396985267581 0.343837809668534 41
0.229848032638029 1.786820915500829 0.285336464233381 16
0.227068186925821 1.770093215350591 0.219121079442455 42
0.227592798747975 1.776639732625189 0.156706025460289 26
0.221959406037579 1.737476124669589 0.091797267250123 15
0.221370206611318 1.737689357213790 0.030576616078121 52
0.224962434271726 1.739244329573991 -0.030611520890995 38
0.224337477046878 1.739184501417372 -0.091901939162609 48
0.223742235847031 1.736959154985627 -0.153219795750383 58
0.226618356194940 1.764146815944604 -0.218389863382024 54
0.220880409055396 1.724241333843223 -0.275324658470806 44
0.220720558138058 1.725382760263428 -0.338113539807237 46
0.232355817203353 1.748408600363812 0.472603576357203 27
0.237668659712893 1.790779491231322 0.417059254753526 45
0.231338214918975 1.747758612747840 0.342692955696275 46
0.236030602556464 1.788007274347647 0.285649333163462 32
0.229613281438628 1.741736915097116 0.215708737827111 33
0.231145668916600 1.758096732851477 0.155137222090832 39
0.226421575240221 1.726828985175184 0.091273907687694 37
0.225097869675643 1.719061119276974 0.030262472762250 41
0.229150207535881 1.726594884501703 -0.030402092013748 49
0.228307616763374 1.722551269871617 -0.091064563862722 51
0.230284249522956 1.742133271977258 -0.153742730206869 60
0.229137887807819 1.735792756496589 -0.214977521766680 63
0.224835081657355 1.707791996183750 -0.272821707030163 51
0.225929766641426 1.720748242205709 -0.337350303825731 46
0.237935126246381 1.743758645560357 0.471568300176793 28
0.240452318690897 1.766810225593516 0.411660429449273 42
0.238453057442912 1.756708928289780 0.344601045650040 49
0.239086196828701 1.763682809480160 0.281894906002496 35
0.233791977024226 1.729162754621533 0.214246305706249 33
0.236214731350998 1.749381289044764 0.154439976148850 46
0.232181385089045 1.724048715920260 0.091169235775208 50
0.230264839858299 1.714341420667936 0.030192663136500 50
0.233825719329968 1.715877567635782 -0.030227567949375 57
0.231597665784330 1.703973137463105 -0.090122516650349 52
0.235828053674578 1.737370247519327 -0.153394107235878 58
0.233827451014211 1.727154777216358 -0.214002567019439 75
0.230761419302751 1.708994637433482 -0.273134575960243 53
0.232459662130507 1.723840404353370 -0.338113539807237 46
0.242145509708325 1.729525132770930 0.467944833545357 31
0.245307197394603 1.754337272489714 0.408961016797147 30
0.244618919749978 1.753878721497660 0.344219427659287 48
0.241974889403336 1.739359085102339 0.278140478841530 35
0.239854921724762 1.726328044675605 0.214002567019439 40
0.241772775293219 1.744599031297115 0.154091353177860 56
0.237104117686781 1.715313958256895 0.090750548125265 60
0.237640526054710 1.721409577358502 0.030332282387999 67
0.238983061414699 1.709109624937274 -0.030122853510751 57
0.238393961258192 1.707068971722787 -0.090331860475321 58
0.240791665520631 1.728643121748035 -0.152696861293897 45
0.238515060480494 1.714489211684133 -0.212540134898577 82
0.237566657298742 1.712050634156845 -0.273760313820404 53
0.237937252278481 1.719129034274872 -0.337350303825731 46
0.247083056907797 1.721020370919499 0.465874281184537 42
0.249465860186758 1.741939807685327 0.406261604145020 21
0.249323075689936 1.745283799857393 0.342692955696275 48
0.246928848867746 1.730681548855073 0.276889003121209 36
0.246417418868300 1.731419030183766 0.214733783079870 42
0.243655301692125 1.714156034059392 0.151476680895430 56
0.243090236263299 1.714475860153305 0.090750548125265 60
0.242507523946688 1.714672095464644 0.030227567949375 59
0.244379846231126 1.704306106692485 -0.030053043885002 59
0.244619088462188 1.710223316378239 -0.090541204300293 61
0.242034320014144 1.694261859080848 -0.149733566040477 50
0.243639110244355 1.709758361405477 -0.212052657524957 65
0.243798698921239 1.715164857687873 -0.274386051680565 52
0.242832896984376 1.710512945901087 -0.335823831862719 46
0.253651453861721 1.723969954841181 0.466909557364947 51
0.255565381223299 1.739085736359931 0.405811702036332 42
0.255433421810890 1.742415769872460 0.342311337705521 50
0.250681829130143 1.714172370325434 0.274386051680565 26
0.253048634925871 1.732468485571155 0.214977521766680 40
0.249637338446850 1.713295075110553 0.151476680895430 60
0.249647956628697 1.717569851798615 0.090959891950236 66
0.245917613155333 1.693982231782055 0.029878519820629 59
0.249746015082041 1.699485785057938 -0.029983234259253 61
0.250305644603688 1.705363081359098 -0.090331860475321 59
0.247658277003906 1.691435309791189 -0.149559254554981 66
0.249318893141249 1.706933235783824 -0.211808918838146 51
0.247517033974524 1.696667594833701 -0.271570231309841 51
0.249367681594087 1.713540459147789 -0.336587067844225 46
0.256501007586920 1.702060944934253 0.461215538372692 47
0.259302924595783 1.724739109306000 0.402662387275518 46
0.257715627083874 1.718260691671351 0.337731921816484 44
0.255785896474725 1.707426153614725 0.273447444890324 56
0.256444993513478 1.715913518132973 0.213027612272198 40
0.256792933373204 1.720295464552664 0.152173926837411 64
0.254170976467284 1.706810577753529 0.090436532387807 59
0.251239860739755 1.691179437853576 0.029843615007755 67
0.256272095424883 1.702558494636759 -0.030053043885002 64
0.253883307565607 1.690697860999617 -0.089599157087920 64
0.253856504859647 1.692530866525407 -0.149733566040477 61
0.256744473011786 1.715868733903473 -0.213027612272198 60
0.251683834148550 1.686068820895973 -0.270005886659438 52
0.256505573496131 1.720426727577911 -0.338113539807237 46
0.264208024094376 1.712610810497041 0.464321366913922 47
0.263545172030306 1.710295076058333 0.399513072514704 48
0.260133499287148 1.692078632537639 0.332770887936694 47
0.261744367659016 1.706522891988776 0.273447444890324 62
0.260928753482941 1.703188879764476 0.211565180151336 38
0.261893240560856 1.713480057385675 0.151650992380925 62
0.257116575989545 1.686168594072440 0.089389813262948 64
0.258339942224277 1.696177930470423 0.029948329446379 69
0.262213572346384 1.701653565515200 -0.030053043885002 68
0.258863000464920 1.681859920106642 -0.089180469437976 64
0.259158190298922 1.687695817138004 -0.149384943069486 64
0.258818399030376 1.687446139771817 -0.209615270656854 68
0.258459488986371 1.689040324078376 -0.270631624519599 52
0.261916848711898 1.715639337643409 -0.337350303825731 46
0.269582123644672 1.707861667918128 0.463286090733512 46
0.268608925134996 1.705561698583532 0.398613268297329 48
0.265133701174246 1.687327780706774 0.332007651955188 56
0.263411554497573 1.678278031751880 0.269067279869197 56
0.266882411063353 1.704275435651651 0.211808918838146 31
0.267564906827176 1.710586985738951 0.151476680895430 64
0.262692872827991 1.683287443694452 0.089285141350462 68
0.263347951543891 1.691360142155113 0.029878519820629 69
0.265037430883619 1.680974964973222 -0.029703995756257 70
0.264438825627404 1.680992252026053 -0.089180469437976 64
0.264429221324960 1.682844426024276 -0.149036320098495 61
0.264105292325167 1.684617450985937 -0.209371531970043 73
0.264364398112701 1.690125600800072 -0.270944493449680 49
0.267600893137658 1.712774902536400 -0.336968685834978 43
0.274618426433041 1.701188758961487 0.461733176462897 43
0.275478764732652 1.708413519927548 0.399513072514704 45
0.270068854597038 1.678591374768625 0.330481179992176 55
0.269894438484615 1.681249139260183 0.269693017729358 56
0.270298396055271 1.685645340929521 0.209615270656854 26
0.270701417798661 1.691936278545221 0.149907877525972 62
0.269826442073678 1.690249364508245 0.089703829000406 70
0.269545327503810 1.690383563122344 0.029878519820629 69
0.270903513825331 1.680039570615288 -0.029703995756257 70
0.271868608099713 1.687899123460599 -0.089599157087920 64
0.269669548618059 1.677976848252398 -0.148687697127505 64
0.271536520197525 1.691478132795311 -0.210346486717285 76
0.270869664183078 1.691095818805109 -0.271257362379760 47
0.273577962958940 1.711830366289220 -0.336968685834978 43
0.279925963204317 1.696407645526111 0.460697900282487 45
0.283358767268425 1.720950554456955 0.402662387275518 46
0.275633779258997 1.677686564708194 0.330481179992176 53
0.276401266629465 1.684195389550204 0.270318755589519 56
0.274282718742612 1.674944732461636 0.208396577222802 47
0.276927362926018 1.692947303433975 0.150082189011467 60
0.275724869534957 1.689297196878807 0.089703829000406 70
0.273863614680198 1.681585655964999 0.029738900569131 69
0.277416745472286 1.683029848174012 -0.029773805382006 70
0.277464388472965 1.686988294025319 -0.089599157087920 64
0.274879123567487 1.673093239035158 -0.148339074156514 64
0.277786451632381 1.694486272259296 -0.210833964090905 73
0.275519386137434 1.684339882042513 -0.270318755589519 44
0.280184885501002 1.714740090778464 -0.337731921816484 41
0.286191599752682 1.699280095212230 0.461733176462897 44
0.288071031262031 1.712264031476363 0.400862778840767 51
0.280838230488588 1.672841883052136 0.329717944010669 52
0.281984740056374 1.683269549641968 0.270318755589519 52
0.278489522258870 1.664187762982543 0.207177883788751 51
0.282539855852573 1.692019670806558 0.150082189011467 60
0.281981799924270 1.692313766966381 0.089913172825377 70
0.279075128198685 1.676674332678675 0.029669090943382 69
0.284323412007927 1.689988575230870 -0.029913424633504 68
0.283020368166501 1.684039847606369 -0.089494485175434 67
0.281743889373072 1.680032308050186 -0.149036320098495 64
0.282715690848099 1.687632860967789 -0.210102748030474 70
0.282048533265935 1.687264563235959 -0.270944493449680 42
0.286192644532506 1.715738034903496 -0.338113539807237 40
0.292448941060254 1.700174638476216 0.462250814553102 47
0.291439738758697 1.697854787419050 0.397713464079953 45
0.285721103940040 1.668031249955687 0.328954708029163 48
0.286192880216350 1.672539596516100 0.268754410939117 46
0.283672511068477 1.661298337462309 0.206934145101940 53
0.288444385381571 1.691023114296009 0.150082189011467 60
0.285876504776002 1.679505518761723 0.089285141350462 73
0.285638235539967 1.681654042575550 0.029773805382006 77
0.290898135668641 1.692927429138019 -0.029983234259253 68
0.286915550869147 1.673249415202829 -0.088971125613005 67
0.288615725941500 1.684929966531612 -0.149559254554981 60
0.287307127710486 1.680815925664457 -0.209371531970043 65
0.288306453974161 1.690214482858068 -0.271570231309841 42
0.293828815366436 1.724405381154625 -0.340021629761003 34
0.298381876369150 1.699143443120509 0.462250814553102 47
0.297364582424624 1.696827128970112 0.397713464079953 48
0.292509931281932 1.670840512286800 0.329717944010669 47
0.289989603152338 1.659854991134331 0.266877197358634 51
0.289418273356371 1.658291934173041 0.206690406415130 54
0.292977942001038 1.682154589889099 0.149384943069486 56
0.290369278297591 1.670626360269593 0.088866453700519 73
0.292141973767356 1.682566048617359 0.029808710194880 69
0.294041584732689 1.676144748845994 -0.029703995756257 70
0.294132201712723 1.680107052898845 -0.089389813262948 66
0.294495470767956 1.683912244469443 -0.149559254554981 60
0.293513814960471 1.681758329467942 -0.209615270656854 61
0.297892314200414 1.708606646409778 -0.274698920610645 41
0.299173267624698 1.719500828202452 -0.339258393779497 29
0.299333238589805 1.722200095770753 -0.403562191492894 18
0.301972145849848 1.686734924328952 0.459144986011872 47
0.302647080270254 1.693913341093279 0.397263561971266 48
0.299083922233485 1.675659457160775 0.330862797982929 49
0.294453040171975 1.653049930637299 0.265938590568392 50
0.297350222524118 1.671003803636209 0.208396577222802 60
0.295767583056275 1.665480219987903 0.147990451185524 56
0.296604751848377 1.673587500991854 0.089075797525490 77
0.298068575774554 1.683557092224377 0.029843615007755 77
0.299598264280508 1.675160455800046 -0.029703995756257 70
0.299000141968506 1.675190066521896 -0.089180469437976 63
0.300077905763867 1.682926403574835 -0.149559254554981 58
0.300132446828437 1.686638926945085 -0.210346486717285 55
0.304248093045909 1.711499176253340 -0.275324658470806 39
0.307960153230067 1.735896909997442 -0.342692955696275 35
0.311163870546141 1.755737092076255 -0.411660429449273 11
0.307457490919227 1.681816097269790 0.458109709831462 46
0.311301992847815 1.706212354133013 0.400412876732080 51
0.303815329980337 1.666826274580720 0.329336326019916 50
0.300863334193750 1.653903084963793 0.266251459498473 51
0.303117821485900 1.667949634163769 0.208152838535992 56
0.301514327255079 1.662424584546348 0.147816139700028 54
0.303448249200376 1.676419793366582 0.089285141350462 79
0.301746288701721 1.668678836625016 0.029599281317633 72
0.307173089018568 1.681919751957881 -0.029843615007755 68
0.307222620803568 1.683853759781191 -0.089703829000406 61
0.305887195935397 1.679855101533137 -0.149384943069486 55
0.308796843902497 1.699199276021638 -0.212052657524957 48
0.310519007537393 1.710372555438121 -0.275324658470806 33
0.315720556110679 1.742483720460847 -0.344219427659287 35
0.319332380721722 1.764172721758793 -0.413909939992712 5
0.314447741553187 1.688384062978783 0.460180262192282 49
0.315889886549920 1.699422891925661 0.399063170406017 46
0.309699503113530 1.667739876350209 0.329717944010669 54
0.307786155448106 1.660665487737914 0.267502935218795 55
0.307563034136470 1.661079543719196 0.207421622475561 60
0.308111643015587 1.667293235911615 0.148339074156514 56
0.310454819771705 1.683260831821136 0.089703829000406 79
0.306915811699130 1.665702444067052 0.029564376504758 67
0.314211999465780 1.688755703189503 -0.029983234259253 66
0.310614793336163 1.671043970832584 -0.089075797525490 58
0.312546392438082 1.684708396378910 -0.149907877525972 51
0.318766857941676 1.721588904301212 -0.214977521766680 43
0.317985628960847 1.719045554871923 -0.276889003121209 29
0.323992093032822 1.754941574162175 -0.346890753594558 19
0.319525513663867 1.732441397796382 -0.406711506253708 1
0.321355202442651 1.691015984852488 0.461215538372692 49
0.318484933868929 1.679107643651999 0.394564149319139 47
0.316906557620205 1.672380352266858 0.330862797982929 58
0.314972032204701 1.665349139806020 0.268441542009036 52
0.313649129170859 1.659941111696426 0.207421622475561 60
0.315328219056848 1.672026380371476 0.148862008613000 58
0.314405469056338 1.670334907532816 0.089075797525490 73
0.314127540293916 1.670462101776478 0.029669090943382 69
0.320399488035725 1.687592715595146 -0.029983234259253 64
0.317189636686484 1.673874218067990 -0.089285141350462 58
0.321683886521772 1.699212485289344 -0.151302369409935 50
0.324706090246213 1.718458424682199 -0.214733783079870 42
0.329414028165198 1.745043854205532 -0.281269168142335 24
0.483455876798713 2.565981577462154 -0.507551927701609 47
0.476913814496502 2.533689361794762 -0.595220489793867 1
0.326227127310120 1.686147676716256 0.460180262192282 49
0.324051304332164 1.678042277248308 0.394564149319139 47
0.322822543632585 1.673247961961658 0.331244415973682 56
0.318998658225746 1.656536544881158 0.267190066288714 50
0.321027126159800 1.668638607622009 0.208640315909612 56
0.321622579185781 1.674884803196982 0.149210631583991 58
0.320694692413371 1.673206226916432 0.089285141350462 77
0.321169572195289 1.677267285405762 0.029808710194880 72
0.323716961138986 1.674740830571708 -0.029773805382006 64
0.325008802582028 1.684579739756082 -0.089913172825377 55
0.328825282308123 1.705961913598265 -0.151999615351916 45
0.332653108532409 1.729068276823273 -0.216196215200732 42
0.338181851765759 1.759460831983385 -0.283772119582979 3
0.491962320142604 2.564364271363623 -0.507551927701609 46
0.484579553320070 2.528266121119375 -0.594320685576491 1
0.330161523123642 1.673568740969802 0.457074433651052 49
0.331705501011629 1.684491386780544 0.396363757753890 47
0.329711092187960 1.675906177186368 0.332007651955188 57
0.325829308958282 1.659232942197044 0.267815804148875 52
0.327905183860612 1.671346689491388 0.209127793283233 56
0.323547319986973 1.652186988030813 0.147293205243542 56
0.328357737300081 1.679860238060844 0.089703829000406 77
0.328464725050482 1.681966739095695 0.029913424633504 77
0.330626413910207 1.677466999099579 -0.029843615007755 61
0.332723082520589 1.691215984237692 -0.090331860475321 51
0.334307214305459 1.700835283904119 -0.151650992380925 43
0.344720834315003 1.757056776131972 -0.219852295502886 37
0.502313834341336 2.562682447178906 -0.413612725566370 43
0.499850037382039 2.554837015990202 -0.506025455738597 44
0.489356775091674 2.503522516208984 -0.588921860272239 1
0.335329269805948 1.670570613065674 0.456556795560847 50
0.337289651919276 1.683382149794689 0.396363757753890 46
0.332954599760032 1.663253231440124 0.329717944010669 56
0.330942664710472 1.656206246916024 0.267502935218795 55
0.333057134847450 1.668303448615559 0.208884054596423 55
0.329024390504405 1.651104982168696 0.147293205243542 56
0.335485132832368 1.686597657309252 0.090122516650349 79
0.332091627217669 1.671061563475403 0.029738900569131 69
0.337760083016536 1.684204005453026 -0.029983234259253 57
0.339113605101649 1.694020145440666 -0.090541204300293 46
0.343462227319399 1.717300612180351 -0.153219795750383 48
0.510422842436609 2.559065405655618 -0.413299856636290 48
0.509086129866357 2.557016334387077 -0.506788691720103 46
0.488151555794292 2.454103594587321 -0.577674307555045 1
0.341837096327459 1.671223013746813 0.457074433651052 46
0.344236989153020 1.685953308258792 0.397263561971266 45
0.337478822267175 1.654327175076427 0.328191472047657 56
0.339769893449714 1.668531718515774 0.269693017729358 65
0.336794953065129 1.655400081587367 0.207421622475561 54
0.336263393854526 1.655745547720910 0.147816139700028 58
0.341664568881236 1.685356714278555 0.090122516650349 77
0.337817178472509 1.667873264539301 0.029703995756257 67
0.347133810757778 1.698628358461938 -0.030262472762250 53
0.345320221557742 1.692765853538866 -0.090541204300293 48
0.352937342122669 1.731648247940300 -0.154614287634346 48
0.516650946291153 2.541691110732800 -0.410796905195646 49
0.516893033430264 2.547437080926122 -0.505262219757091 46
0.427450070087340 2.108517860073910 -0.496691927991254 1
0.349344220284963 1.679537105204016 0.459662624102077 43
0.347845024845677 1.675262289274335 0.395014051427827 46
0.343760501470943 1.657043607662120 0.328954708029163 54
0.344499913260454 1.663527158980980 0.269067279869197 56
0.341880393517113 1.652330209430730 0.207177883788751 53
0.342558214391833 1.658523763126510 0.148164762671019 58
0.345638287012622 1.676389989714102 0.089703829000406 75
0.345766960280840 1.678495277385326 0.029913424633504 64
0.352764756722820 1.697467881627397 -0.030262472762250 52
0.353365945306071 1.703345143870176 -0.091169235775208 50
0.367169561107365 1.771437718903812 -0.158274828829747 13
0.523680320422683 2.530981097269188 -0.317347770227004 41
0.523750673904463 2.538018031452685 -0.503735747794078 46
0.376593210945853 1.826525338036016 -0.430556318014158 1
0.354512169717823 1.676479347723115 0.459144986011872 41
0.351788466358187 1.666472705074703 0.393214442993076 46
0.351684565279680 1.667420493885780 0.331244415973682 56
0.347572512489388 1.650777640095251 0.267190066288714 56
0.348175150732766 1.655072554961116 0.207665361162371 50
0.349284627509858 1.663228251836837 0.148687697127505 60
0.349556310599509 1.667415529870730 0.089285141350462 70
0.350101286055978 1.671467777224098 0.029808710194880 52
0.359218563524306 1.700201745753918 -0.030332282387999 52
0.365909982157480 1.733368362221808 -0.092843986374982 58
0.378382748870701 1.795554822834076 -0.160540878141186 8
0.513180653310514 2.441551834623186 -0.395153458691623 93
0.392672649195127 1.871457809143472 -0.371695922993509 20
0.384247481769865 1.832895585028788 -0.432355926448909 2
0.527885283292099 2.522445348188472 -0.690529212333525 1
0.362505272072716 1.686626844374439 0.462250814553102 44
0.358948053389788 1.672918466077249 0.395014051427827 46
0.355565858978809 1.658566548959082 0.329717944010669 55
0.353458178720605 1.651547606199967 0.267502935218795 54
0.355322038078301 1.661673694752679 0.208640315909612 45
0.350222813247340 1.640627461885913 0.146770270787056 58
0.355083737775251 1.666247191355948 0.089285141350462 66
0.358973690341490 1.685944425236421 0.030087948697877 52
0.369892929774585 1.722462652100971 -0.030751140142494 61
0.379198088313720 1.767296070421484 -0.094728080799728 48
0.384334942757149 1.794290187851875 -0.160540878141186 35
0.388529705188423 1.816970301738910 -0.228139410854436 24
0.391678004390654 1.833258094251985 -0.296912614646358 4
0.391914558280219 1.837504228852358 -0.365208417150707 7
0.394385108443671 1.850670727344921 -0.436854947535786 9
0.516147893954822 2.426202651834607 -0.664647307823273 1
0.369097494340400 1.687174086723050 0.462768452643307 46
0.367033488280890 1.679143036738332 0.396813659862578 45
0.358293880066077 1.641907266938939 0.326665000084645 54
0.360349985982130 1.654101237009270 0.268128673078956 53
0.361832197929338 1.662299886385421 0.208884054596423 47
0.355810580759411 1.637385860246785 0.146595959301561 60
0.365422785228609 1.684453128768751 0.090331860475321 68
0.365997791517019 1.688526021776851 0.030157758323626 52
0.377911661797701 1.728909638142307 -0.030890759393992 64
0.388229953321898 1.777601956343304 -0.095356112274644 45
0.389211005616768 1.785082856999123 -0.159843632199205 66
0.394658396101504 1.811585865359143 -0.227651933480815 42
0.400073818923262 1.839531221433322 -0.298164090366680 21
0.399479833020656 1.839892554502426 -0.365971653132213 32
0.396620892344991 1.828263945357477 -0.431906024340221 26
0.390097513040998 1.801228215163360 -0.493826738055610 1
0.376662365651636 1.693418483933752 0.464839005004127 51
0.372177260525541 1.676014277471084 0.396363757753890 44
0.362886818717084 1.636876659054022 0.325901764103139 52
0.367403320922179 1.658619184345564 0.269067279869197 56
0.366056680126733 1.655276080520710 0.208152838535992 48
0.361953830217551 1.638079336419313 0.146770270787056 50
0.373021372837634 1.690968773638736 0.090750548125265 77
0.374605741923908 1.700973324575911 0.030402092013748 64
0.387415063969488 1.743196489051254 -0.031169997896988 59
0.386767912116002 1.743157475757868 -0.093576689762384 41
0.394577272427757 1.779823058091664 -0.159495009228214 64
0.398089804854754 1.798638044951023 -0.226189501359954 54
0.405319317980560 1.834336713708659 -0.297538352506519 33
0.407169582414561 1.844238162865025 -0.367116507104472 45
0.403100913158198 1.828841711760625 -0.432355926448909 42
0.382571204523117 1.692093370029120 0.464839005004127 9
0.375311730899411 1.661333051037911 0.393214442993076 40
0.370611627279659 1.643196206163991 0.327428236066151 56
0.372322858527459 1.653472354634861 0.268441542009036 55
0.372121111514665 1.653923297548740 0.208152838535992 48
0.368979575684108 1.642637752036967 0.147293205243542 13
0.375425288962921 1.674065552408143 0.089913172825377 77
0.382149330050887 1.705442823521720 0.030506806452372 62
0.397904063024930 1.761338952719175 -0.031519046025734 48
0.389636146469965 1.726142257439132 -0.092739314462496 44
0.397721475680154 1.764829370319328 -0.158274828829747 51
0.400754775823652 1.779737471486539 -0.223995853178661 58
0.409873425647767 1.823202446691357 -0.295974007856117 43
0.411025039293017 1.831312049785311 -0.364826799159954 46
0.409801245566902 1.827351989080462 -0.432355926448909 44
0.392368787717014 1.707692770735184 0.469497747815973 37
0.382561724251250 1.667676955022310 0.395014051427827 8
0.376935218044814 1.645785587211378 0.328191472047657 44
0.377651618824137 1.650237034329441 0.268128673078956 45
0.378487990501574 1.656550651088948 0.208640315909612 27
0.376041539161939 1.647167007218424 0.147816139700028 24
0.381266581033277 1.672744874611687 0.089913172825377 73
0.389577521714820 1.711965581186174 0.030646425703870 69
0.396890614706025 1.728755414488772 -0.030960569019741 48
0.394465641916259 1.720947140931822 -0.092529970637525 46
0.403434655600117 1.761488207475797 -0.158100517344252 55
0.405769401232335 1.774528444113688 -0.223508375805040 58
0.414158494416594 1.814129921078986 -0.294722532135795 51
0.413485367997130 1.812639374313780 -0.361392237243176 49
0.414127768346374 1.818382646337823 -0.430556318014158 40
0.394957650799554 1.693212806532507 0.465874281184537 51
0.390592407514382 1.675820764139776 0.397263561971266 22
0.385347630430157 1.655932786496132 0.330481179992176 8
0.382227825401897 1.645127371706479 0.267502935218795 17
0.384717036859390 1.657153056686524 0.208884054596423 27
0.377902601794033 1.630383490044023 0.146421647816066 55
0.389513333187799 1.683146355369248 0.090541204300293 75
0.397803591824148 1.720336702912308 0.030820949768243 57
0.398989884753271 1.711849797097366 -0.030681330516744 51
0.402282548822854 1.727340527468498 -0.092948658287468 46
0.406566308975099 1.748496975637216 -0.157054648431280 55
0.412100629914726 1.775106774840407 -0.223752114491851 51
0.418256574325556 1.803051778275857 -0.293158187485393 52
0.418165108751271 1.805520358420114 -0.360247383270917 38
0.420911950589039 1.818824556703243 -0.431006220122845 30
0.396411597369987 1.673025788846628 0.460697900282487 44
0.398390672544795 1.683998271055872 0.399513072514704 35
0.387677593889426 1.641271087535297 0.327809854056904 20
0.388421826743743 1.645705678290363 0.267815804148875 60
0.391576202619581 1.661664682133397 0.209615270656854 58
0.384504712775890 1.632933131964143 0.146770270787056 56
0.397214613010707 1.689553446703346 0.090959891950236 70
0.401221386820078 1.709274172082920 0.030646425703870 51
0.404502216212741 1.708500732709986 -0.030646425703870 54
0.407089466696904 1.722109632299134 -0.092739314462496 45
0.414499266433147 1.754823266869924 -0.157751894373261 57
0.417838739846560 1.771725371898374 -0.223508375805040 56
0.420158595804388 1.784349759500624 -0.290342367114668 49
0.422666422818033 1.796405411596345 -0.358720911307904 28
0.427832393339895 1.821212955518295 -0.431906024340221 31
0.404056993400434 1.679144813684133 0.462768452643307 45
0.406382501900281 1.690105734638643 0.401312680949455 30
0.395065487078598 1.645566182499142 0.328954708029163 47
0.398768765354225 1.663549384072250 0.270944493449680 62
0.396276678418871 1.654426863260104 0.208884054596423 50
0.392519486804558 1.641269735004017 0.147641828214533 56
0.401254323849028 1.680386044311340 0.090541204300293 70
0.407019390704418 1.705847047768159 0.030611520890995 57
0.413736020646257 1.720688311753138 -0.030890759393992 53
0.411532220412015 1.712838034791292 -0.092320626812553 48
0.419692665619899 1.749490862101522 -0.157403271402271 57
0.423866894628977 1.768251610334359 -0.223264637118230 55
0.428075146822876 1.788561171141088 -0.291280973904910 52
0.430759725957942 1.802557039690866 -0.360247383270917 35
0.430883727185615 1.804469033350496 -0.428306807470719 43
0.411291397480523 1.683354108494617 0.464321366913922 47
0.410137394316686 1.681175964220575 0.399513072514704 33
0.401914130823544 1.649969487781766 0.330099562001422 49
0.402237333911022 1.652550593065469 0.269380148799278 54
0.400354379621426 1.647316838536944 0.208152838535992 51
0.399656749197237 1.645697932770087 0.148164762671019 50
0.404293584630876 1.667329097322658 0.089913172825377 70
0.411262289977012 1.698657311997609 0.030506806452372 49
0.418791258543403 1.715348346786453 -0.030820949768243 64
0.416736906142290 1.709523491713647 -0.092215954900067 49
0.429097723179035 1.761565708255411 -0.158623451800738 58
0.428790026320357 1.762978573444474 -0.222777159744610 52
0.433537706122417 1.785212205665610 -0.290968104974829 51
0.436586224056544 1.799134541923803 -0.359865765280164 36
0.437324085000642 1.804924189174989 -0.428756709579407 52
0.417164894153721 1.681908178026643 0.464321366913922 47
0.418171666709960 1.687227485927779 0.401312680949455 32
0.409845386743014 1.656108369812341 0.331626033964435 51
0.405634003910470 1.641547973688144 0.267815804148875 55
0.408768737648075 1.655474457888769 0.209371531970043 53
0.407306631568054 1.652030692896590 0.148862008613000 54
0.410111186209218 1.665907691409864 0.089913172825377 73
0.416530073683714 1.693254938555094 0.030436996826622 59
0.424776390258053 1.713876041997997 -0.030820949768243 57
0.426360775884497 1.721555411745358 -0.092948658287468 53
0.435244120801395 1.760057145619607 -0.158623451800738 58
0.435248785710682 1.761395137847695 -0.222777159744610 55
0.439131519821752 1.779775496560532 -0.290342367114668 49
0.438637020698543 1.780443304725437 -0.356431203363386 43
0.444868186560087 1.807093682336014 -0.429656513796782 54
0.420675262610329 1.671074743146223 0.461733176462897 44
0.426614848716661 1.697171175538321 0.404012093601582 40
0.415812932434332 1.656644356602697 0.332007651955188 48
0.411361604406819 1.640122045906322 0.267815804148875 55
0.413773987167836 1.652184206927217 0.209127793283233 51
0.411136055484660 1.642867720476349 0.148164762671019 54
0.417860572042621 1.672216701661385 0.090331860475321 73
0.424563362869980 1.701565422103209 0.030611520890995 69
0.428805015079796 1.704625740448658 -0.030681330516744 66
0.435473251123599 1.733691682517565 -0.093681361674869 51
0.436049789434326 1.737270215803724 -0.156706025460289 57
0.441569979472327 1.761867654533578 -0.223020898431420 58
0.442633256934491 1.768728089220385 -0.288778022464266 48
0.443896687314543 1.775092118164468 -0.355667967381880 46
0.451802484944204 1.809389889331853 -0.430556318014158 52
0.428525008804809 1.675061883920024 0.463286090733512 47
0.435354895256435 1.702997057445090 0.405811702036332 46
0.420031831326511 1.645450558308869 0.330099562001422 44
0.420095753498202 1.648101299473323 0.269380148799278 54
0.421872868316394 1.656280917953170 0.209859009343664 50
0.417441168396292 1.641276964448895 0.148164762671019 54
0.427228118485787 1.682214740403702 0.090959891950236 68
