ply
format ascii 1.0
element vertex 825
property double x
property double y
property double z
property uchar intensity
end_header
-1.306639201268941 2.162625530626403 -0.491142354099226 10
-1.924842683295719 3.162079124294996 0.323870740050298 10
-3.201743834906640 5.360334160344828 1.673006307542694 46
-3.206687364992583 5.366482811617199 1.443285964670238 37
-3.207267217638182 5.363200634108839 1.214690064567084 48
-3.201564479041518 5.349424436434076 0.987414343333937 46
-3.213150512811946 5.366657445440879 0.768020602139240 51
-3.206360505427748 5.351077669300544 0.545769261085835 45
-1.291046567193408 2.152064087333280 0.043805540157582 49
-1.290365726087187 2.159463864592502 -0.043910254596205 39
-1.294293920191069 2.165179494356498 -0.132200625469676 27
-1.289846318396453 2.156030021352711 -0.219806783209594 39
-1.292633165762327 2.159832634807433 -0.309060654875454 28
-1.296192057821054 2.164064470565649 -0.399533623712750 24
-1.291007165448074 2.153702213965178 -0.488089410173202 16
-3.187937486839468 5.379787510515340 1.675594497993719 48
-3.184897683319175 5.370382466042348 1.441486356235487 34
-3.185456444914622 5.367053692216232 1.213163592604072 53
-3.191948629208540 5.375854180628709 0.990230163704661 48
-3.198378580121814 5.382402725570865 0.768751818199670 49
-3.193770807334381 5.372513121791615 0.546815129998807 50
-3.201414201735676 5.381093478015117 0.328146445643258 1
-1.273672664368632 2.139151578860334 0.043456492028836 51
-1.280780469795735 2.160514615450358 -0.043840444970456 52
-1.287106809779297 2.169459622773650 -0.132200625469676 53
-1.279261807133392 2.155379275785548 -0.219283848753108 66
-1.294587749690261 2.179467668303562 -0.311254303056747 53
-1.284971019381434 2.161558884217679 -0.398282147992428 48
-1.280470964836666 2.153133323181945 -0.486944556200942 28
-3.175992353016184 5.402540476559420 1.679217964625155 46
-3.178035398057500 5.403856786068068 1.447335083648428 35
-3.168751322773637 5.383768759056586 1.214308446576331 58
-3.179179426443541 5.397175661993458 0.992107377285144 48
-3.177621796055952 5.392378978980761 0.768508079512860 56
-3.179046230362991 5.390493415579554 0.547512375940789 50
-3.183626363038330 5.393955726958716 0.328251117555744 1
-1.271924082187527 2.154137046824747 0.043665920906083 49
-1.274244782442338 2.166695915005119 -0.043875349783331 51
-1.275095559918298 2.167276824483000 -0.131781937819733 55
-1.275773993378548 2.166699110581740 -0.219981094695089 58
-1.283568374367875 2.179066690297681 -0.310523086996316 56
-1.271020838057339 2.156043867178468 -0.396404934411945 49
-1.284918617353656 2.177880697292406 -0.491523972089979 39
-3.160034267993853 5.418600250780684 1.680770878895770 45
-3.161080401390849 5.416048867113270 1.447784985757115 37
-3.157812220738784 5.406113780882751 1.216979772511603 50
-3.166300191550380 5.418473376340399 0.993984590865627 56
-3.161726815548958 5.406313843768922 0.768995556886481 51
-3.164234993275993 5.408436291369514 0.548209621882770 54
-3.160741840773336 5.398141616694290 0.327832429905800 1
-1.266795733172614 2.161793643318091 0.043735730531832 50
-1.268689231092717 2.174585123161171 -0.043945159409080 51
-1.267901600068296 2.171493277311429 -0.131781937819733 56
-1.273227605797128 2.179741170388481 -0.220852652122566 61
-1.273329772258459 2.178169940060294 -0.309791870935885 58
-1.269849300324006 2.170476925714063 -0.398282147992428 52
-1.273341770060072 2.175575139242404 -0.489997500126967 40
-3.146886553552860 5.437409609613397 1.683359069346795 43
-3.138219127781215 5.418070126523547 1.445535475213677 35
-3.144827903646739 5.427295771419973 1.219269480456121 50
-3.148314476928071 5.428943413546214 0.993984590865627 56
-3.152797441470032 5.434487970945391 0.771432943754583 56
-3.152285021064438 5.429237658438200 0.549255490795742 61
-3.142823579257378 5.408593333535615 0.327832429905800 1
-1.264266855389319 2.174846479157850 0.043910254596205 47
-1.261471071275121 2.178780291654143 -0.043945159409080 51
-1.262696388055776 2.179142063556363 -0.131991281644704 58
-1.267990732306822 2.187398797357491 -0.221201275093556 64
-1.268091988306904 2.185814593053233 -0.310279348309505 58
-1.265239887545024 2.180021746661214 -0.399220754782669 51
-1.265134226648317 2.178088078228918 -0.489615882136214 41
-3.128838150860893 5.447815164757822 1.683359069346795 46
-3.132859571375348 5.450410883814886 1.451384202626617 37
-3.132685000361479 5.447906188412587 1.221559188400640 53
-3.134235336318569 5.446202165577271 0.995236066585949 56
-3.141691810377621 5.456955605293127 0.773139114562256 60
-3.133268999285311 5.437934831960098 0.549081179310246 50
-3.137841165754341 5.441478170384164 0.329193164768117 1
-1.259046339452826 2.182491252917517 0.043980064221954 47
-1.257227694841375 2.188153132652705 -0.044049873847704 46
-1.259445586467003 2.190243003586629 -0.132409969294648 52
-1.261723567779160 2.193318601612043 -0.221375586579052 58
-1.260836593509052 2.190007719274323 -0.310279348309505 52
-1.258989614530759 2.185917206580947 -0.399533623712750 48
-1.258884910120880 2.183972351688379 -0.489997500126967 35
-3.111719780310466 5.466504458892824 1.685429621707615 54
-3.114802354013060 5.467479719689298 1.452733908952680 36
-3.111743500375368 5.459894645238644 1.221559188400640 53
-3.116236520366040 5.463344211127540 0.996174673376190 52
-3.119731664690862 5.467254436943239 0.772895375875445 54
-3.120270203194305 5.463766685582489 0.550475671194209 56
-3.122870746989511 5.463890580539291 0.329821196243032 3
-1.245693989613651 2.178629743414867 0.043805540157582 41
-1.250795649706754 2.196439777504692 -0.044119683473453 7
-1.365792824543336 2.395461082784156 -0.241247095925518 10
-2.688813194449740 4.712080219541430 -0.666137831052536 43
-3.096425434578226 5.481839422256138 1.686982535978230 69
-3.099531451985392 5.482868010259889 1.454083615278744 43
-3.091687818925840 5.466765741538835 1.220795952419134 66
-3.110751570923921 5.495996421624624 1.000241969467236 90
-3.103540660798424 5.481024569281844 0.773382853249066 74
-3.105081473219915 5.479284039109256 0.550998605650695 73
-3.108675931290054 5.481165530551350 0.330239883892976 16
-1.564219251463297 2.768128976931089 -0.055498652470562 9
-1.550018431057796 2.741881023829039 -0.165067605990245 7
-1.393161261005122 2.462404192487953 -0.247522309403349 11
-2.671216370829024 4.717515946646301 -0.665650353678915 43
-3.069729186254692 5.476910568742416 1.682323793166385 26
-3.072752120776237 5.477819854997382 1.450034496300554 24
-3.077385500235602 5.483836464902307 1.222322424382146 53
-3.080901294667453 5.485613893680890 0.996487542306271 58
-3.086320239645444 5.493016773559368 0.773626591935876 76
-3.094706890112140 5.503443933582727 0.552393097534657 84
-3.081666682015924 5.475779158778268 0.329297836680603 56
-1.577528052757552 2.801947717119285 0.056126939102304 9
-1.552097183232795 2.768068251584512 -0.055393938031938 7
-1.540419499377275 2.744995263441947 -0.164962934077759 7
-1.388889348945175 2.473959868051787 -0.248219555345330 11
-2.657502588201323 4.729809339047812 -0.666137831052536 42
-2.226209318379462 3.960576979830486 -0.719598539185062 1
-2.652855621811121 4.715755055321123 -1.051739182515515 2
-3.027137816156040 5.443163563297643 1.668865202821054 18
-3.032772071235770 5.448815984426272 1.439686747800736 17
-3.037216235446313 5.454560070343317 1.213545210594825 16
-3.047307816661446 5.468191952482758 0.991481639424983 16
-3.056488194277001 5.482415048605365 0.770701727694153 24
-3.055082372968959 5.475398756837471 0.548558244853761 19
-3.051806118033284 5.465042727428779 0.328041773730772 24
-1.567252519471473 2.805417834102363 0.056092034289429 9
-1.527353921830736 2.745240803587609 -0.054835461025945 7
-1.521591874098407 2.732638586266616 -0.163916214952900 7
-1.385525651210493 2.487254769293919 -0.249091112772807 12
-2.644703257287121 4.743797461411853 -0.666869047112967 38
-2.214987734263660 3.971387959871992 -0.720224277045223 1
-2.639116818505625 4.727954851448845 -1.052502418497021 2
-1.790388772339871 3.182621336319771 -0.709809462800747 1
-1.785566346385604 3.198826596375469 -0.712099170745265 1
-2.972655756388880 5.391627037630674 1.649712593483467 16
-2.986418959832785 5.412120969400923 1.427089488757480 16
-2.995381329257822 5.426123917328288 1.204767996807504 16
-2.991900493873495 5.415349727151856 0.979905489012006 18
-3.007565510023967 5.441459553444521 0.763389567089844 22
-2.979057820582832 5.385440748953076 0.538448178695032 12
-3.011440348411536 5.439497121505922 0.325843663568568 20
-1.548239873187316 2.795399456598550 0.055777890973558 9
-1.503760562771532 2.726306401685892 -0.054346793645701 7
-1.507705072266657 2.731203026804711 -0.163497527302957 7
-1.374473718224825 2.488828071939968 -0.248742489801816 12
-2.632099956250222 4.762145796932131 -0.668087740547018 42
-2.204240479485209 3.986394441945027 -0.721475752765545 1
-2.625572693705876 4.744467001480952 -1.054028890460033 2
-2.930654778082020 5.357389234405080 1.636254003138136 16
-2.945059529583318 5.379261285656256 1.415841936040287 16
-2.946248837423074 5.379204541907323 1.192174603112652 14
-2.953985979048267 5.388865311295015 0.973335241480317 16
-2.958005833234215 5.393964926022660 0.755346190425104 20
-2.909417099551386 5.300972904129747 0.529035358478285 29
-2.939537517766201 5.351422864807251 0.319982036469359 16
-1.529330934342282 2.782993089579032 0.055428842844812 9
-1.488951569374741 2.720752904949735 -0.054137364768453 7
-1.490004858425044 2.720422253577978 -0.162555480090584 6
-1.367170311776813 2.495119589244769 -0.248916801287312 11
-2.614384632858508 4.767366870724771 -0.667600263173398 3
-2.195759669465301 4.002341376179494 -0.723040097415947 1
-2.618329174489074 4.768635798727627 -1.057463452376811 2
-1.770027645068915 3.198478478188825 -0.710572698782253 1
-1.766970608550909 3.218097778282448 -0.713625642708278 1
-2.889818330142183 5.329035422207335 1.624348327063420 16
-2.897436984747697 5.338636883812645 1.402344872779654 16
-2.896536189166061 5.334756023548347 1.179962827408553 16
-2.906862906953293 5.349321709670992 0.964262042507983 16
-2.909772570490305 5.352449222388970 0.748034029820795 20
-2.889968520605347 5.311600845262180 0.529035358478285 49
-2.917993521433322 5.358652744292368 0.319772692644387 20
-1.509554232650325 2.771019349427486 0.055079794716067 9
-1.460851895580757 2.692795620162333 -0.053474173323837 4
-1.464775849762764 2.697781514657975 -0.160880729490809 6
-1.359918041575165 2.503615319586396 -0.249265424258302 11
-2.584568272126612 4.754244568338981 -0.664431660244864 19
-2.171637806392670 3.993008991013132 -0.719911408115143 1
-1.760795363839364 3.234898591514344 -0.715915350652796 1
-2.849248865399760 5.296057323654232 1.611407374808294 16
-2.846458005930963 5.286446201592792 1.386148396866896 16
-2.851828909064733 5.294207233865603 1.168895905676714 16
-2.868484840372008 5.320678557526152 0.957378926046213 16
-2.864679673964893 5.311400976529346 0.740965607903297 22
-2.854357035234687 5.287843112250389 0.525723440253874 15
-2.869828938419613 5.312068733377348 0.316423191444838 20
-1.495602918729362 2.767213999809714 0.054905270651694 7
-1.364723559402161 2.535626795138884 -0.050262930539377 2
-1.437825136237585 2.669214907355451 -0.158891963153577 6
-1.356334179765184 2.516880824193676 -0.250136981685779 12
-2.590461981489964 4.802974106736570 -0.670037650041501 40
-2.156508530529047 3.996711533538704 -0.719285670254981 1
-2.600833017790310 4.816165691924990 -1.063950958219614 2
-1.750058372085589 3.240719812787404 -0.715915350652796 1
-2.803456759615031 5.257030951269130 1.596395870192348 16
-2.801370860957374 5.248705990161988 1.373551137823640 15
-2.812061759429982 5.266523681891086 1.160500309880145 14
-2.815447084335346 5.268436855692602 0.946115644563316 18
-2.826474798566046 5.286852607830695 0.736090834167091 24
-2.809577692701196 5.250837880088681 0.521017030145500 19
-2.822996305542307 5.271491629950043 0.313387705982748 20
-1.479784472588298 2.762101062520913 0.054695841774447 7
-1.328124186011247 2.489446628464112 -0.049250690966014 8
-1.416280409805878 2.653572068696656 -0.157635900203747 4
-1.351793969219354 2.530622014065793 -0.251008539113255 15
-2.576584476970969 4.819438817668181 -0.671012604788742 43
-2.150230145213945 4.020265632996077 -0.722101490625706 1
-2.577604243584650 4.815280651542413 -1.061661250275095 2
-2.753486903542401 5.204824340722832 1.577760898944967 16
-2.762065155215397 5.216633302373086 1.362753487215134 15
-2.767931802084094 5.225507862899204 1.149433388148306 16
-2.770203289859898 5.225385673140126 0.936729576660903 16
-2.778233844819484 5.238324121617897 0.728047457502351 20
-2.765993868411571 5.210850720458636 0.516136308551632 22
-2.781136829080999 5.234965179213564 0.310666236258115 20
-1.461231959575945 2.749335117139101 0.054346793645701 7
-1.386275593958143 2.619324358516863 -0.051728932680108 4
-1.376632017371999 2.600005439182256 -0.154181727091713 3
-1.336864300724794 2.522767452084750 -0.249788358714788 10
-2.568029342332305 4.841986240303653 -0.672962514283224 42
-2.136886641253824 4.027373948327505 -0.722101490625706 1
-2.565305162317247 4.830737551499835 -1.063187722238108 2
-1.727050434953914 3.226341888740136 -0.711335934763759 1
-1.718183572463741 3.235519120997377 -0.712099170745265 1
-2.711951474150927 5.176477240639678 1.565855222870250 18
-2.718478228810802 5.184531977767959 1.351505934497941 10
-2.719573133208117 5.184419780253727 1.137984848425713 14
-2.729921982969437 5.199735146075626 0.930159329129213 15
-2.739645374900470 5.216043318408296 0.723416422452955 18
-2.732074964753734 5.197222225403325 0.513695947754697 21
-2.734991254250188 5.198363330445336 0.307840094620996 20
-1.438075528507794 2.732174649525213 0.053893031078331 7
-1.387817791732580 2.647893265082113 -0.052182695247478 7
-1.324887919792707 2.525681348340813 -0.149471491029848 2
-1.331355711358258 2.536934681120761 -0.250659916142265 9
-2.552263969541711 4.859285638611502 -0.673937469030466 24
-2.116108309367471 4.027176162560524 -0.720537145975303 1
-2.556858519842536 4.861847781270451 -1.067767138127145 2
-2.671609079882561 5.140872846085025 1.552396632524919 20
-2.700371529480993 5.191789402519433 1.351056032389253 8
-2.693303764226745 5.175993843210571 1.134168668518182 14
-2.698065097934375 5.180726963005298 0.925153426247925 13
-2.701237039904889 5.184608629107467 0.717810432656319 15
-2.697322217423436 5.172687599091438 0.510384029530286 14
-2.696483837316675 5.166679960779978 0.305432640633820 20
-1.421603220405270 2.722747480942560 0.053613792575335 7
-1.371650008844373 2.638286998113588 -0.051903456744481 7
-1.312817484373731 2.522973942498657 -0.149052803379904 4
-1.311895816055188 2.520128415090270 -0.248568178316321 3
-1.563132625104967 2.998914999883261 -0.535631608297750 1
-1.701684422845539 3.261952111531687 -0.715152114671290 1
-1.712492089415623 3.256291187312661 -0.715152114671290 1
-2.631532899629020 5.105058305299024 1.538938042179588 16
-2.683140087838764 5.200715610988280 1.351056032389253 8
-2.677025187148453 5.186641282637086 1.134550286508935 14
-2.683590208285927 5.194910696088542 0.926092033038167 13
-2.684029405806529 5.193537747194641 0.717810432656319 15
-2.680154136410207 5.181603800705306 0.510384029530286 14
-2.652707603862436 5.124156743207067 0.302397155171729 22
-1.397852214097669 2.699035813217765 0.053055315569342 7
-1.346395888883869 2.610829938415470 -0.051275170112739 7
-1.324148772245453 2.566590250841095 -0.151355585454594 10
-1.302617438323718 2.522694649832949 -0.248393866830826 2
-1.297812520838199 2.511238625468649 -0.347083890017860 3
-1.568602194951896 3.033912299367254 -0.540950380109118 4
-2.538091609434324 4.904853023189796 -1.073491407988441 2
-2.591723881871326 5.069034993188475 1.525479451834257 16
-2.667654617849965 5.213054215690551 1.351955836606629 9
-2.672336123331897 5.219955912933369 1.139892938379479 14
-2.667249301745595 5.205539272731197 0.926404901968247 13
-2.671319917175539 5.211242367798200 0.719029126090370 18
-2.638400630509199 5.142600145660214 0.505677619421913 15
-2.614717276813675 5.092060854066385 0.299989701184554 22
-1.377929248703798 2.682311762058112 0.052636457814847 6
-1.323160416403346 2.586795378359804 -0.050716693106746 8
-1.311081165656354 2.562077246433759 -0.150832225892164 10
-2.589397680243033 5.055774162206533 -0.496962045147147 2
-2.534584558703163 4.944497419480394 -0.682224584382016 1
-1.296223308835789 2.527600869479687 -0.449905521455704 2
-2.523605545577464 4.916735910158250 -1.074254643969947 2
-1.689955771230177 3.265833527349622 -0.714770496680537 1
-1.320583734504865 2.578427089389091 -0.253448899910190 2
-1.287666753296141 2.511995473562386 -0.346596412644239 2
-1.670151734071337 3.253953463809883 -0.710954316773006 1
-2.552158918867445 5.041479152327403 1.514091413849747 20
-2.654633548009938 5.239365924060810 1.356004955584818 10
-2.653135668676288 5.234143541735341 1.140656174360985 14
-2.649012680523509 5.221489235379994 0.927343508758489 13
-2.658465085193998 5.237855009512611 0.721222774271663 18
-2.624954558596389 5.167360587305655 0.507072111305875 15
-2.573436205691700 5.061567632797972 0.297582247197379 21
-1.352645108394038 2.659303498033377 0.052077980808854 6
-1.309151775700770 2.584950209922768 -0.050577073855248 10
-1.302136862021938 2.568874003419546 -0.150936897804650 13
-2.569081693427699 5.066127907798799 -0.496962045147147 2
-2.499442334237818 4.924539586503577 -0.678081026706241 7
-1.282489076681077 2.525738568308088 -0.448654045735382 3
-2.507688736970467 4.994667766511403 1.497526994963185 18
-2.643369575851405 5.260328977817299 1.359154270345632 9
-2.639291320792898 5.249929154419475 1.142182646323997 15
-2.635234562134215 5.237303328749833 0.928594984478810 15
-2.641973673583457 5.248415111133215 0.721466512958473 24
-2.618562070395121 5.197388657607327 0.509163849131819 15
-2.533256156944162 5.023706437005716 0.294860777472746 21
-1.325805442006275 2.628066977344762 0.051379884551363 7
-1.293392048832831 2.574981773872369 -0.050297835352251 11
-1.290919724212981 2.567824568196911 -0.150622882067192 40
-2.500345014510652 4.971382700915992 -0.486851978988419 4
-2.486668464393077 4.939893412032816 -0.679055981453482 36
-1.269663883355436 2.521156167810027 -0.447089701084980 4
-1.284838339273906 2.549072554027151 -0.554872558554992 3
-1.302112608559461 2.567714776137939 -0.251880096540732 7
-1.279369476619214 2.520684533134828 -0.347083890017860 2
-1.290009726426727 2.564898844260632 -0.251182850598751 4
-1.289747283218951 2.562148593103883 -0.352202402440876 1
-2.472168215918371 4.964910806122636 1.486138956978674 18
-2.613107418574458 5.241082656010075 1.138366466416466 5
-2.629318884307621 5.268991105992262 0.932662280569856 5
-2.607707971114197 5.223402151375896 0.716835477909078 20
-2.589735289736173 5.182873889034187 0.506897799820380 15
-2.499609258988167 4.998139207492531 0.292872011135514 21
-1.301872289144631 2.602047131375126 0.050786502732495 8
-1.288412529924395 2.586416288207858 -0.050437454603749 20
-1.273485686882033 2.554217135794458 -0.149576162942333 28
-2.475841768821818 4.963600686519660 -0.485283175618961 56
-2.470273514969111 4.948112340609740 -0.679055981453482 45
-2.044200540004928 4.092873874770792 -0.724604442066349 1
-1.268477692488629 2.537514626464714 -0.551437996638214 1
-2.437728177926463 4.936705785746355 1.475268557084368 16
-2.579930662129181 5.220093018520738 1.344307500758937 2
-2.585270970976886 5.228600666591450 1.133787050527429 1
-2.597813269363789 5.249354232898667 0.927656377688569 1
-2.567471942986170 5.185767062584853 0.710498272052010 22
-2.565456898838121 5.177151466382767 0.505503307936417 19
-2.458173128966767 4.956300936178935 0.289941197585909 21
-1.289681142614402 2.599184765186668 0.050646883480997 10
-1.279828580303851 2.590674597129196 -0.050437454603749 43
-1.269434797795405 2.567377928449565 -0.150099522504763 11
-2.449650931273440 4.952139322286440 -0.483365749278512 34
-2.440639709782050 4.929591948687007 -0.675399901151327 8
-2.009574179855904 4.057146969693600 -0.717095587744418 1
-2.468663378511554 4.979635151783433 -1.080360531821997 2
-1.301061964003706 2.608386423986444 -0.255017703279648 1
-1.263061732619625 2.528887096199051 -0.447715438945141 1
-2.402620489998882 4.915210904642936 1.465951071460677 18
-2.566662831387508 5.246161676500727 1.348356619737127 3
-2.569439831346539 5.249516601740558 1.136076758471948 5
-2.556732088344770 5.218939518201103 0.920460392296718 3
-2.524793534761814 5.151468866030780 0.704404804881752 20
-2.506922791926035 5.110491388590266 0.498007914060119 12
-2.417131812659511 4.923100885517067 0.287429071686247 21
-1.278355358770892 2.602546061901123 0.050611978668122 11
-1.260633757905029 2.577827317716809 -0.050088406475004 21
-2.351408155268724 4.804065072067651 -0.280311381637207 7
-2.413980164984569 4.929724200619548 -0.480228142539597 24
-2.413842400189236 4.925089438353995 -0.673449991656845 3
-2.007186236413214 4.093559435209105 -0.722101490625706 1
-2.410596507437788 4.911956915207409 -1.063569340228861 2
-2.362714413620276 4.874476031525179 1.451457204934936 16
-2.569666248951711 5.296723424759846 1.359154270345632 2
-2.572591553792326 5.300397356819682 1.145235590250022 3
-2.516106132245106 5.179415251225832 0.912012931184546 1
-2.485136172479752 5.113392595080549 0.698067599024685 20
-2.432441009428519 5.000526894261658 0.486503356017428 10
-2.379810036345656 4.887991665798146 0.284916945786586 21
-1.267966641051423 2.603175385241890 0.050542169042373 19
-1.257313614264692 2.592789348007959 -0.050297835352251 14
-2.306685311955954 4.752541736554694 -0.276857208525173 37
-2.373251518507246 4.887518599381827 -0.475347420945728 22
-2.377539494620993 4.892002692220918 -0.667844001860208 1
-1.990145354487575 4.093086943130141 -0.720850014905384 1
-2.387421866081296 4.905801240014698 -1.060516396302836 2
-1.620038485264075 3.301074740647103 -0.714770496680537 1
-1.618532851996100 3.325847260233067 -0.718968294578821 1
-2.328126301659235 4.843978191313541 1.440069166950425 7
-2.573207111566978 5.349118432445408 1.370401823062826 2
-2.563514488688143 5.326589668426109 1.149051770157553 4
-2.457768194723655 5.102306446279370 0.896995222540684 3
-2.447482933092368 5.078687006690306 0.692217870541238 19
-2.362179074600045 4.897304084220589 0.475696043916718 9
-2.351431200151585 4.870675778163183 0.283451539011784 19
-1.254109021932138 2.596561799067353 0.050332740165126 29
-2.223585377405286 4.624399425422255 -0.089565749836139 2
-2.319519516663332 4.821759020184389 -0.280416053549693 14
-2.337151258828315 4.854073365849906 -0.471338256779335 20
-2.343206371506390 4.862306327884133 -0.662725489437192 1
-1.973129716619397 4.092546525550588 -0.719598539185062 1
-2.345543461195915 4.860646716634652 -1.049067856580243 1
-2.295428792873772 4.816792880922069 1.429716405146324 5
-2.555454647253651 5.357622083459771 1.370401823062826 1
-2.553446394201391 5.351008014040136 1.152486332074331 4
-2.406780622640507 5.039128629130100 0.884480465337465 9
-2.404096440783422 5.031250569047061 0.684661971250119 21
-2.315839045199803 4.842201350564543 0.469595141924382 13
-2.318019360393426 4.842416737949844 0.281358100762066 19
-1.246355342313459 2.602509838795249 0.050367644978000 13
-2.189305417626185 4.592036664842949 -0.088797843952899 7
-2.303015879261073 4.824038910935270 -0.467677715583934 18
-2.308240690919505 4.830645348778898 -0.657363238327366 1
-1.956139585654380 4.091938344824798 -0.718347063464740 1
-2.320938408523275 4.850688387873862 -1.045251676672712 1
-1.558977685198624 3.234980561655902 -0.440923284439824 1
-1.588723872225097 3.292296903009721 -0.710572698782253 1
-1.509728060356695 3.159532219223573 -0.429955043533360 1
-1.577797486918707 3.297547199058464 -0.710572698782253 1
-2.275268015160431 4.822076906367691 1.428681128965915 3
-2.533095355144315 5.366074883564370 1.369951920954138 1
-2.536236035143416 5.367873435743234 1.154012804037343 3
-2.367145956464888 5.005474684209755 0.876971611015534 15
-2.366931754983159 5.002762312444760 0.679543458827102 21
-2.274205844443150 4.802439197338278 0.464888731816009 14
-2.273745728441800 4.797137806897974 0.278217943387489 21
-2.170258353558711 4.576736573442356 0.088413891011278 9
-2.155438029314252 4.566050720788495 -0.088134652508282 10
-2.243163853913111 4.749740300336776 -0.275287129837885 17
-2.229982318241894 4.717564066787695 -0.456521780512234 1
-1.498730071197763 3.169156261512327 -0.430442520906981 3
-1.943793799761478 4.106561043794621 -0.719598539185062 2
-1.562602532232442 3.298258549487745 -0.709427844809994 1
-2.255967157389066 4.824739707341994 1.427128214695299 3
-3.490838214226994 7.458918348158877 1.901286311314347 0
-2.524251259861417 5.388699416422997 1.156684129972615 1
-2.327025989856126 4.965412353830120 0.868524149903362 20
-2.328410563627302 4.963856725183638 0.673206252970035 21
-2.237960462006238 4.768864329651236 0.460879567649616 17
-2.240004146148639 4.768890089203077 0.276124505137772 19
-2.170383765704934 4.616482405486353 0.089042177643020 29
-2.123387300606567 4.539131978156412 -0.087471461063665 13
-2.159647176880292 4.612448516857113 -0.266913376839014 9
-2.214346531172095 4.727123662380762 -0.456696091997729 15
-2.159846383835216 4.606591656714643 -0.624702254294786 1
-1.934361276409423 4.121925587308173 -0.721162883835464 1
-1.541067591101281 3.282367342621017 -0.704848428920956 1
-1.244064401645183 2.623537901554797 0.050681788293871 6
-2.508678574682296 5.360325372304428 1.366352704084636 0
-2.238330417621689 4.828688835726267 1.426092938514889 3
-3.452482378020814 7.444540014722580 1.894537779684031 1
-4.065220763329786 8.757768444113973 1.876797278523695 3
-2.288074391981642 4.924732243092595 0.860076688791189 17
-2.298518220468950 4.944952229946479 0.669550172667880 21
-2.205325152205342 4.740130410385230 0.457393337939710 19
-2.207315015263775 4.740080526507040 0.274031066888054 19
-2.210835844683806 4.745476837709073 0.091380800105616 28
-2.109164631616018 4.547962532021471 -0.087506365876540 30
-2.189766646619594 4.719605166047828 -0.272670332025737 21
-2.202854562434858 4.743475900956958 -0.457567649425205 28
-2.111969129752553 4.545692441713257 -0.615440184195995 6
-1.988263596633427 4.275528802603410 -0.746818136102062 1
-1.525203606927046 3.276780310151519 -0.702558720976438 2
-2.221461511428705 4.836472648941465 1.426092938514889 3
-3.435916464001352 7.473653810668664 1.899036800770908 1
-4.032053151405322 8.762283601597588 1.874889188569929 4
-2.253522431948620 4.895007599936177 0.853506441259500 19
-2.265492258491403 4.916489341061419 0.664675398931674 23
-2.162073310590763 4.689899558700369 0.451815370403860 11
-2.179877133207216 4.724181047986335 0.272670332025737 19
-2.178317929332754 4.716473645211034 0.090682703848125 28
-2.109975882986317 4.591637806499524 -0.088204462134031 15
-2.164088766174974 4.705066429569009 -0.271414269075907 19
-2.167960184619497 4.711317351554997 -0.453732796744308 26
-2.161658471832199 4.693307955204990 -0.634451801767198 7
-2.059256600382845 4.466872873402920 -0.779043635900350 3
-1.514578463760723 3.283867073583354 -0.702940338967191 3
-2.204565537428250 4.844197531263735 1.426092938514889 3
-3.410923606023404 7.491517555042909 1.900386507096972 2
-3.999910694031921 8.777002960598377 1.874889188569929 4
-2.220845685015198 4.868696664968176 0.847561931587971 17
-2.218611955349108 4.861552357816251 0.656144544893314 22
-2.140722460510179 4.686544377640406 0.450769501490888 22
-2.145933521181079 4.693616739772388 0.270472221863534 21
-2.143548756639658 4.686237699784207 0.089949702777759 29
-2.127080218850550 4.671772411543735 -0.089600654649014 22
-2.129442714717008 4.674797576849549 -0.269216158913703 24
-2.127531551884221 4.666283506188812 -0.448677763664944 18
-2.137021099636047 4.682765699783633 -0.632014414899095 11
-2.030564410268100 4.447436263850620 -0.774350601949143 1
-1.516162699998527 3.317704042763093 -0.709046226819241 4
-2.189230826865575 4.855385612443370 1.427128214695299 3
-3.376442589593740 7.481472657507436 1.894987681792719 1
-3.974015989062507 8.797375585228941 1.876415660532942 4
-2.168042164330700 4.797215641033135 0.833795698664431 14
-2.155843327047928 4.765789823037545 0.642251439745127 18
-2.112849589243174 4.668576184966844 0.448329140693954 22
-2.112230061460540 4.662873488360290 0.268274111701330 21
-2.111481543032106 4.656895515702313 0.089251606520268 24
-2.100070258238157 4.655472236207161 -0.089146892081644 23
-2.096668902426062 4.643606882073507 -0.267018048751499 22
-2.100567442214742 4.650077096349627 -0.446411714353505 20
-2.101033989156238 4.646785766731259 -0.626164686415648 14
-1.949833214907174 4.308373373153202 -0.749008218612625 1
-1.503762734018284 3.321187756205876 -0.708664608828487 5
-2.165119423896750 4.849264847903631 1.422987109973659 3
-3.363586945733837 7.529967942921190 1.903985723966473 0
-3.941809966919556 8.816154352957669 1.877178896514448 4
-2.109291947870742 4.713174113257974 0.817839383230327 19
-2.114814388738044 4.723302757424308 0.635426756514439 12
-2.074538818046486 4.629016837068889 0.443797042071075 21
-2.076324227226293 4.628670718872649 0.265866657714155 19
-2.080484569536249 4.635778411949662 0.088693129514275 24
-2.060972316042696 4.613841033820440 -0.088204462134031 24
-2.062525214508118 4.615154243388699 -0.264924610501782 22
-2.068865989520801 4.625007846795787 -0.443274107614589 20
-2.067769260048529 4.620392430023417 -0.621533651366252 17
-1.913087153044029 4.270759197607956 -0.741186495360614 1
-1.497202413141249 3.339216992349822 -0.711335934763759 7
-2.127861694558117 4.810857507886368 1.409528519628328 1
-3.348853796275193 7.564245541988805 1.909834451379414 0
-3.913348268125821 8.830972304719769 1.877560514505201 3
-2.076013978283680 4.682585220947245 0.811269135698637 17
-2.092698175559293 4.715774107217229 0.633476847019957 14
-2.040581526772750 4.596168437350920 0.439962189390178 24
-2.043121728115088 4.597562017106008 0.263668547551951 18
-2.053722371852578 4.617072708135738 0.088204462134031 27
-2.028670401283525 4.584433993295925 -0.087506365876540 22
-2.037503223071551 4.600054729348868 -0.263668547551951 19
-1.925171526465767 4.344396477698738 -0.415732892906329 10
-2.038753209862871 4.596375835534634 -0.617390093690477 19
-1.875668818123275 4.224722074405786 -0.732113296388280 1
-1.489522059369388 3.353393951783286 -0.713244024717524 7
-2.116550079435167 4.828503283587426 1.412634348169558 1
-3.322429249505615 7.575889139259751 1.909834451379414 0
-3.878552952056798 8.835590245159960 1.875652424551435 4
-2.050938996293768 4.667741769740141 0.807514708537672 14
-2.060247201352132 4.686705122235031 0.628602073283751 16
-2.016502152601271 4.582849752514165 0.438044763049730 26
-2.015789015842600 4.576894475102864 0.262098468864663 18
-2.016628715668410 4.576635430961496 0.087296936999292 24
-2.001409707326959 4.563666199123293 -0.086982793683421 23
-2.003779180236930 4.566901896634686 -0.261365765477261 19
-1.869895504148398 4.257721640866386 -0.406843007146068 10
-2.009919837228216 4.574386071459553 -0.613490274701512 21
-1.859319837144808 4.227627194410404 -0.731487558528120 1
-1.483930669128891 3.370892905435943 -0.715915350652796 7
-2.081217051138375 4.793333354389464 1.400211034004637 1
-3.294958188777745 7.581503314785605 1.908484745053351 0
-3.849231753340983 8.848403409166302 1.875652424551435 3
-2.018866803640468 4.638647164894335 0.801257329936062 14
-2.024080764040785 4.646194087143424 0.622264867426683 15
-1.985367642099426 4.555158249647826 0.434732844825319 27
-1.991813968499354 4.565596685959968 0.261051749739804 22
-1.986236088227758 4.548478514399389 0.086633745554675 26
-1.971922825758194 4.539444595847770 -0.086389411864553 21
-1.975084882035807 4.542384246109046 -0.259586342965001 22
-1.856611454635344 4.267876858917024 -0.407191630117059 12
-1.980474453039142 4.548265438894036 -0.609102978338927 21
-1.880017744838279 4.313447120971824 -0.745253791451660 1
-1.480002324614408 3.394048267637519 -0.719731530560327 5
-2.056840454738207 4.782821934840902 1.395034653102587 1
-3.254825409077828 7.564887700344931 1.901286311314347 0
-3.817551435504893 8.864255259664930 1.876034042542189 3
-1.990932834469594 4.618455994268325 0.796564295984856 17
-1.995245783300692 4.626239664426512 0.618608787124529 16
-1.952082177333178 4.521818007539010 0.430897992144422 19
-1.951305258853224 4.515685925586325 0.257806920452741 24
-1.955268125370486 4.522688759902193 0.086005458922933 22
-1.945000582231554 4.520583789425427 -0.085900744484309 21
-1.944208585154717 4.516571545819682 -0.257702248540255 22
-1.844856073250648 4.281650701981362 -0.407888876059040 12
-1.947288479651830 4.517212231227080 -0.603984465915911 24
-1.898630725257738 4.400112949880350 -0.759020024375200 1
-1.463475203003509 3.388379784108556 -0.717441822615808 1
-2.032562693708312 4.772198956386976 1.389858272200536 1
-3.223607439534692 7.561298484212489 1.897687094444845 0
-3.795070670106573 8.893117359719815 1.879468604458966 4
-1.968594102716043 4.610843723208614 0.794061344544212 19
-1.976773249432108 4.625529155613719 0.617633832377287 22
-1.923753597427219 4.499293141520424 0.428109008376497 22
-1.921385515924585 4.489418804958283 0.255922826027995 22
-1.928447952967258 4.501575872929113 0.085481886729815 24
-1.915098523314338 4.494232109485560 -0.085272457852567 24
-1.916682822423989 4.493599990934123 -0.256027497940481 22
-1.833809124450840 4.297226896859970 -0.408760433486517 12
-1.919821655809745 4.494436474843814 -0.600084646926946 22
-1.873156600669005 4.380956406088082 -0.754639859354074 1
-1.447777893274312 3.384442442880203 -0.715533732662043 1
-1.994869887796330 4.729425216912334 1.375364405674795 1
-3.201175966332662 7.585630717218725 1.900836409205659 1
-3.762450274803370 8.906967255720946 1.879468604458966 4
-1.955564467284725 4.624964987134096 0.795312820264534 19
-1.964446985920607 4.643712723111959 0.619096264498149 24
-1.891721769691044 4.467452545331019 0.424448467181095 21
-1.896349671435648 4.474031600629258 0.254666763078165 21
-1.901006090444330 4.482839724634171 0.084993219349571 27
-1.880739386737202 4.456672989289292 -0.084434742343578 24
-1.889324038155471 4.474835060713328 -0.254562091165679 22
-1.410053073328889 3.336438491884602 -0.316898280630485 1
-1.886327952591918 4.461218681838396 -0.594722395817120 22
-1.854007264830779 4.380515837816411 -0.753388383633752 1
-1.451272019196826 3.425629917108350 -0.723166092477105 1
-1.973881479766559 4.725664218003428 1.372258577133565 1
-3.171493206392879 7.585416981558664 1.898136996553533 1
-3.730619176299030 8.913961882899628 1.878323750486707 4
-1.952873765568153 4.659355471384560 0.620314957932201 20
-1.866870179292617 4.451980068108614 0.422356729355152 24
-1.866806745938637 4.447474957292784 0.252782668653419 19
-1.867539812760679 4.444873102679889 0.084155503840581 25
-1.859002832496515 4.448450327916821 -0.084155503840581 24
-1.857517966655608 4.440539634383253 -0.252259309090989 16
-1.397628943163457 3.339502248030512 -0.316723969144990 4
-1.861552414107674 4.443647456723926 -0.591553792888586 21
-1.831831758715348 4.368422918951561 -0.750259694332947 1
-1.436267385764505 3.423433401527401 -0.721639620514092 1
-1.946274925608733 4.648161850338738 0.798128640635258 8
-1.966234043736000 4.753947780385688 1.378470234216026 1
-3.138454106622508 7.584385506188235 1.894987681792719 1
-3.697171509987664 8.925761601831638 1.877942132495954 4
-4.391952305624126 10.592651106789882 1.816204139117080 1
-1.928177035939728 4.648145934160267 0.617877571064098 16
-1.841385709172247 4.434548735846369 0.420090680043712 27
-1.843605070410771 4.435521317282857 0.251735949528560 19
-1.842789874275305 4.431377642057647 0.083771550898961 28
-1.832759042374785 4.429043932167549 -0.083666836460337 22
-1.820602209624889 4.397493227883689 -0.249433167453870 12
-1.388251717087612 3.349882322135895 -0.317246903601476 1
-1.835369201378896 4.426602169030493 -0.588385189960052 22
-1.803692898795665 4.345915865863146 -0.745253791451660 1
-1.425815030734872 3.432052099117599 -0.722402856495599 1
-1.961341562934127 4.789386279421620 1.386752443659306 1
-3.105155507378220 7.574916947795485 1.890038758597154 2
-3.670533433479660 8.945237955390628 1.879468604458966 4
-4.316689750536665 10.514721174188901 1.800247823682977 7
-1.809227105591411 4.400409568049300 0.416255827362815 25
-1.809107747136372 4.395755772048677 0.249119151716413 24
-1.813612426459376 4.402334263453985 0.083108359454344 25
-1.800608309036415 4.394705619804152 -0.082898930577097 20
-1.790094268909181 4.364700829938347 -0.247235057291667 12
-1.783464215111181 4.346374192802157 -0.411026482797956 21
-1.805595627041928 4.395939492959991 -0.583510416223846 22
-1.780257443388529 4.329949437120050 -0.741499364290694 1
-1.415319988077090 3.440639494925451 -0.723166092477105 1
-1.934577441081979 4.665875776065758 0.800005854215741 3
-1.930282017401953 4.701838300519299 0.805011757097028 1
-2.691966392695808 6.636158195713533 1.918884400390089 1
-3.082359436033478 7.594738271564617 1.892288269140593 3
-3.640764246592729 8.961633775541484 1.880231840440473 4
-4.249055658691568 10.448464458245471 1.786481590759436 7
-4.253083473835861 10.453140329713792 1.385654434516527 5
-1.782600586603415 4.376861468893988 0.413466843594890 25
-1.782456942233193 4.372139352472737 0.247444401116638 23
-1.785395226415846 4.377161084990742 0.082514977635476 24
-1.772488849899217 4.367300174951084 -0.082270643945354 22
-1.768836375339464 4.356118692091048 -0.246397681991780 19
-1.372169873244772 3.375865871735436 -0.318815706970934 2
-1.778290134970597 4.370644602239171 -0.579366858548071 24
-1.758429219447057 4.319670971513531 -0.738683543919970 1
-1.417237857355127 3.478039884565112 -0.730035216310660 1
-2.650067262478248 6.598904453525322 1.905425810044758 1
-3.057884284747152 7.606726097092777 1.892738171249280 3
-3.609560568512458 8.970015065042706 1.879468604458966 4
-4.184523289306227 10.393600052278691 1.774592571416379 7
-4.190941404918253 10.399062418322670 1.376636103104546 5
-1.755390471012111 4.353491930591789 0.410677859826965 25
-1.756718909019276 4.352405427925655 0.245978994341836 26
-1.760382833381250 4.357100407881658 0.082026310255233 24
-1.746795795193486 4.347483428168929 -0.081781976565111 24
-1.744692643052976 4.337871422232141 -0.245036947129463 19
-1.350708374653329 3.356606500749979 -0.316549657659494 1
-1.755605895820445 4.358412133250773 -0.576929471679968 24
-1.738924033796511 4.312654007219460 -0.736493461409407 1
-1.381584763845522 3.424703935879081 -0.717823440606562 1
-1.975948355685269 4.871051106160378 1.408493243447918 1
-2.626302972905869 6.606319516260667 1.904908171954553 1
-3.031424149289936 7.621504237679879 1.893637975466656 5
-3.574480899181997 8.977712525456615 1.878323750486707 4
-4.121157409976190 10.340248290126825 1.763016421003402 7
-4.125593836509661 10.346128799058329 1.367617771692565 5
-1.724672282526426 4.320734014055836 0.407017318631564 24
-1.731140490503519 4.332545407452105 0.244513587567034 26
-1.734009259135035 4.337527809942936 0.081537642874989 28
-1.722740924785060 4.331257063367184 -0.081363118810616 24
-1.722873990214298 4.329391156151326 -0.244199571829576 39
-1.720180769769092 4.318235136173845 -0.406668695660573 40
-1.726390677388932 4.331624947581154 -0.572542175317383 19
-1.715053790933913 4.298816279099348 -0.733051903178522 1
-1.378359518888932 3.451384526478508 -0.722402856495599 1
-2.601104418391324 6.610053749227162 1.903355257683938 3
-3.009704740901425 7.640580607060294 1.895887486010094 5
-3.541809387052900 8.982210988454348 1.876797278523695 3
-4.061115073118867 10.293931804966505 1.752691746310747 7
-4.063554442943784 10.289592366910339 1.358355701593774 5
-1.700061596881986 4.302639071173739 0.404751269320125 27
-1.704987660446446 4.310702904309058 0.242943508879745 23
-1.707101635898588 4.311646556863682 0.080944261056121 27
-1.695890463461002 4.307473290202141 -0.080804641804623 27
-1.698987549970155 4.310924564905629 -0.242838836967259 22
-1.702904255663132 4.318652882172906 -0.406145761204087 34
-1.698169266927539 4.302243377311690 -0.567911140267987 21
-1.689900438736763 4.276922475890252 -0.728358869227315 2
-1.370634138764053 3.467129467542239 -0.724692564440117 1
-2.576859889170855 6.619542875050307 1.903355257683938 1
-2.978223157511182 7.646633077728658 1.894537779684031 2
-3.508007302805882 8.997573459213402 1.877178896514448 1
-4.005403639205867 10.262742630002343 1.744870023058735 1
-4.003075776242595 10.251495062547942 1.351287279676275 1
-1.675575926829534 4.286573295200519 0.402659531494181 31
-1.673893318630839 4.277864281488998 0.240745398717542 27
-1.679598670811324 4.290238317134800 0.080420688863002 22
-1.669931013737311 4.287573177639134 -0.080315974424379 23
-1.671134802294286 4.284029692409249 -0.402310908523190 26
-1.670811368805353 4.280993529214186 -0.564255059965833 24
-1.669152761971168 4.272340045128976 -0.726481655646832 2
-1.376509078655533 3.519668180175086 -0.734614632199697 1
-1.721706742519368 4.468872781773972 1.283224825618298 1
-1.737630346943214 4.505515475344925 1.114857425328195 0
-1.747206970088325 4.525640749239674 0.942978055150885 3
-1.740283914772473 4.505368037978126 0.764964534046729 1
-1.740400688303976 4.500995348517499 0.592528747635827 1
-1.649819650537402 4.264523329906742 0.400044859211751 30
-1.645967496135758 4.250156735812943 0.238861304292796 25
-1.637692832038296 4.248595225983545 -0.079478258915389 18
-1.307873532932041 3.389433484217843 -0.190398208811830 2
-1.646124471567609 4.263815400456188 -0.399870547726256 21
-1.645871948501036 4.258736234276250 -0.560598979663678 27
-1.644997672162479 4.252059277081654 -0.722101490625706 4
-1.355710561884291 3.502481042824019 -0.730035216310660 1
-1.694484332027946 4.442067867291051 1.273907339994607 1
-1.705910522954970 4.469678697788463 1.104509676828377 1
-1.707575515136277 4.469357470515465 0.930003043465279 3
-1.709809529515482 4.470523452246999 0.758081417584959 1
-1.713327441695230 4.477379262681923 0.588628928646862 1
-1.618563875936011 4.225317590965331 0.395861383559863 28
-1.625428493888799 4.238807926571419 0.237919257080423 26
-1.219860423190713 3.179503591759164 0.059442896325388 3
-1.621455854148161 4.248397904326507 -0.079373544476765 3
-1.298171728744157 3.399575710305165 -0.190712224549287 10
-1.616325064264948 4.228307582813585 -0.396035695045359 22
-1.619650097395712 4.234789676773822 -0.556699160674714 27
-1.624494776925171 4.243017164960044 -0.719598539185062 4
-1.334251954737400 3.481292347437175 -0.724692564440117 1
-1.676239377726189 4.440726149424381 1.271836787633787 1
-1.684190848458082 4.457081751911804 1.100010655741500 1
-1.684409978206954 4.452960154194115 0.925423627576242 3
-1.682307445916362 4.445057261334472 0.752762645773591 1
-1.695657294902246 4.475610924243167 0.587653973899621 1
-1.593917951968320 4.204859267709359 0.393421022762929 30
-1.602119324481367 4.222047868353375 0.236663194130592 26
-1.197238304271260 3.151752080578043 0.058849514506520 3
-1.214500184207123 3.215778776246776 -0.060001373331381 1
-1.280534429449099 3.387048103406414 -0.189770177336914 9
-1.594350500799160 4.210434106886519 -0.552799341685749 25
-1.595011518657230 4.207744167789092 -0.712715422723292 5
-1.267787917394650 3.342746647454926 -0.694926361161376 1
-1.668942744274330 4.466166270354865 1.277530806626042 1
-1.669304932243541 4.464758851696633 1.100460557850188 2
-1.667479608471049 4.455135342001308 0.924660391594736 3
-1.665478605755734 4.445062162464851 0.751824038983350 1
-1.666784656539328 4.446185911711241 0.583022938850225 1
-1.570864995714710 4.185872065888110 0.391154973451490 24
-1.577573811005185 4.199292332989184 0.235093115443304 25
-1.170750667731732 3.114731673956111 0.058081608623280 3
-1.197526826988297 3.202930991016887 -0.059687230015510 2
-1.265204716889758 3.382144093075004 -0.189246817774485 4
-1.514140380695883 4.043297255522480 -0.377732989068351 30
-1.571982218793991 4.195525932714103 -0.550118216130836 24
-1.567826916135867 4.179994172998110 -0.707083781981844 4
-1.256695999321683 3.346932404135447 -0.694926361161376 1
-2.495422095693610 6.749622659904554 1.928201886013780 1
-2.849700207195096 7.699610450837511 1.895437583901407 1
-1.655425026713228 4.468004238438519 0.926186863557748 3
-3.729043247036190 10.059325517449105 1.699191159266988 1
-1.654794002512507 4.459133017697763 0.583997893597467 3
-1.550002384875075 4.174519759560660 0.389586170082032 27
-1.548988695209908 4.167331181048561 0.232999677193586 23
-1.152744392784663 3.097981172543236 0.057697655681659 4
-1.180095325039727 3.190212196766093 -0.059373086699639 4
-1.229707069134942 3.320767285217352 -0.185583300837479 1
-1.544944558835775 4.165353051711170 -0.545487181081440 19
-1.547081019856180 4.166651838765653 -0.703955092681039 2
-1.245005368766449 3.351298701146427 -0.694926361161376 1
-1.655352482807761 4.477400696006484 1.279083720896657 1
-1.653137267121959 4.466614750022995 1.099560753632812 0
-1.655445271332030 4.465666327116516 0.754326990423993 1
-2.444136081233902 6.686146606515600 1.907496362405578 1
-2.819445506823547 7.708665560257908 1.894987681792719 4
-3.324439856647601 9.079548303984398 1.879468604458966 1
-3.635043329313745 9.917130006206376 1.672910169140229 7
-3.638257179700875 9.920539267880102 1.297421029891200 1
-1.524391650437751 4.152117912098163 0.386971497799602 28
-1.522680328641620 4.142986048142597 0.231324926593812 25
-1.135319221250929 3.087369979647221 0.057418417178663 4
-1.151222512825427 3.147565475315405 -0.058500466377774 4
-1.184001087166867 3.235435033407117 -0.180559049038156 1
-1.226103684320942 3.346865331060003 -0.311843247551121 1
-1.518691818540136 4.143297022725689 -0.541831100779286 19
-1.235744302972278 3.367720726972131 -0.568169977026118 1
-1.211051694590048 3.296867996725752 -0.682714585457277 2
-2.427351470400110 6.712804765234462 1.912672743307628 3
-2.795193770941329 7.721637548038703 1.895887486010094 5
-3.298994982430218 9.103443161151491 1.882139930394238 3
-3.582223481973413 9.879617341718362 1.664462708028057 7
-3.601275600915252 9.921353806770405 1.295958597770338 1
-1.500366946002607 4.131195811386607 0.384531137002668 33
-1.501384855225122 4.129505474468526 0.230278207468953 27
-1.118235530044017 3.072326868427808 0.057069369049917 7
-1.127982555078989 3.117717460939801 -0.057872179746032 7
-1.177346411354604 3.250610814835511 -0.181187080513072 2
-1.202873491566385 3.319280726054286 -0.308879952297701 4
-1.214454905859595 3.343949314247528 -0.563476943074912 1
-1.654747441678719 4.512046884752532 0.590091360767724 1
-2.404426760624220 6.718998348443395 1.912155105217423 3
-2.763624819226390 7.718504782252312 1.892738171249280 4
-3.259248550361757 9.092725960972086 1.877560514505201 3
-3.526757391520452 9.828226118020261 1.653825164405321 8
-3.576012815270189 9.960020657955653 1.299370939385682 1
-1.477224330554372 4.109899136956610 0.382090776205733 33
-1.482272911317228 4.119427135040588 0.229440832169066 28
-1.098698450689888 3.051752347021995 0.056615606482548 9
-1.112919014536506 3.108262263458804 -0.057627846055910 9
-1.160603731422208 3.239658772531200 -0.180349705213184 3
-1.185133675411961 3.304497107653478 -0.307136837442747 4
-1.196029047013083 3.331216813568735 -0.434586078582756 5
-1.477256068639442 4.112242096205243 -0.692066073337981 2
-2.379669335958139 6.723708117591221 1.911119829037013 5
-2.744522373879589 7.745995350843608 1.897237192336158 5
-3.230390697389458 9.107184627017133 1.878323750486707 3
-3.468644006426886 9.773458917775692 1.642561882922424 7
-3.541635341180841 9.968083309353430 1.298883462012062 1
-1.454193330754518 4.090625738640576 0.379824726894294 30
-1.461857499030597 4.107641288842212 0.228498784956693 30
-1.083203396302669 3.040309296088350 0.056336367979551 7
-1.098057301958202 3.100818164127812 -0.057418417178663 27
-1.128498864877943 3.183250734665481 -0.177000204013636 3
-1.178920059914814 3.323635947445861 -0.308531329326710 1
