ply
format ascii 1.0
element vertex 815
property double x
property double y
property double z
property uchar intensity
end_header
-5.150251255396499 2.816176244145965 -0.720735296898042 1
-3.886183969899045 2.124098643106991 -0.701452141240395 1
-3.172130246215493 1.732375520672348 -0.702558720976438 1
-5.053470589916662 2.786214316014542 -0.708548362557527 1
-3.872198018786473 2.133161393638879 -0.700200665520073 1
-3.172942810252281 1.747225790775701 -0.704085192939450 1
-7.927903874251661 4.418053289950558 2.431863747783285 15
-9.176065722687731 5.111528820019637 2.424972365826865 6
-10.857001611884996 6.042929575892718 2.415260263476304 11
-11.128145663106908 6.188759563946559 2.016753123298656 12
-12.044535011600704 6.695644361788243 1.692033963837068 17
-12.058062103186503 6.697655443939679 1.206758414084075 22
-12.032247511653797 6.677821917101825 0.721189477027766 22
-12.046342937412854 6.682894970033485 0.240459255892892 28
-11.961289317990692 6.663038051518445 -0.238993253752160 14
-11.811769214839552 6.577046868309127 -0.708524175616974 15
-11.886241213671777 6.613080029191811 -1.190024511476525 5
-12.031222229930099 6.690992722021761 -1.690327793029396 18
-12.021282235149689 6.679971746772629 -2.178193491220175 4
-12.057963293779167 6.694847020764136 -2.680866385040455 2
-7.904012624697014 4.440968441137390 2.429275557332260 15
-9.142072130037379 5.132389887430326 2.420473344739988 15
-10.845464147142222 6.083701881603736 2.417168353430070 11
-11.096137048421381 6.221769657508049 2.014875909718174 10
-12.023997045611399 6.736518924835651 1.692277702523878 17
-12.015487591171963 6.728996369492669 1.204840987743627 21
-12.005378376335759 6.717831025601687 0.720980133202794 21
-12.011897568489779 6.715974210437415 0.240214922202770 14
-11.803706200387245 6.629349863018756 -0.236305583160819 8
-11.925750360905466 6.692418979845299 -0.716688584790873 7
-11.755349194737914 6.594096761988787 -1.179217199375815 5
-12.003773007469682 6.727941214980778 -1.689596576968965 18
-11.995617536950475 6.717868604455796 -2.177567753360014 4
-11.989979881385558 6.711962671078749 -2.670944317280874 2
-5.129967430988219 2.852958252201637 -0.720735296898042 1
-3.885073977174204 2.158853264900663 -0.703955092681039 1
-3.146227290746934 1.746854745773759 -0.699505777050413 1
-5.120478474190399 2.869954150706601 -0.720735296898042 1
-3.872723075506856 2.168829131352324 -0.703016485890797 1
-3.157241451835060 1.767416374167472 -0.703321956957944 1
-7.888462597973256 4.468531538092248 2.429275557332260 15
-9.128286861205954 5.168743376185347 2.421823051066051 12
-10.814549770082632 6.118577868269557 2.415260263476304 11
-11.077790657467871 6.262408742482926 2.015501647578334 8
-11.990584466717076 6.775660821964105 1.691059009089826 17
-11.979781207220178 6.764040152102887 1.203620807345159 22
-11.978376576928476 6.757733943451080 0.720770789377822 22
-11.733510772729046 6.643908874477508 -0.235363153213205 14
-11.711682516200204 6.628849800936125 -0.705279346329911 10
-11.732259883933470 6.635090414797808 -1.179217199375815 5
-11.965208623165998 6.764076827614861 -1.687646667474482 9
-11.943395401161528 6.746245274028965 -2.172561850478726 4
-11.990414087235092 6.767284098911806 -2.676286969151418 2
-7.881204281985644 4.500830343150984 2.431863747783285 15
-9.107711362982716 5.197053815525024 2.420923246848675 11
-10.789083829555546 6.151489324417151 2.414115409504045 11
-11.059295713777558 6.302995532356519 2.016127385438495 10
-11.955974637795739 6.808509487999048 1.689352838282154 24
-11.961291854986044 6.808773091308337 1.204143741801645 22
-11.947770347605898 6.795555354082952 0.720352101727879 25
-10.977221015205071 6.238463871586697 0.220388988490016 2
-11.736297505552244 6.699696583722675 -0.235886725406324 2
-11.691370945470718 6.668640251371438 -0.705384018242397 10
-11.928913719529119 6.795856672426643 -1.685696757980000 9
-11.915808193177492 6.782882248047361 -2.171623243688485 6
-11.973544256910905 6.812980926318731 -2.677813441114430 2
-5.134118258149361 2.902379008498520 -0.724147638513386 1
-3.832068685741343 2.164549894950538 -0.697071976219269 1
-3.151052782371920 1.778426435804144 -0.703321956957944 1
-10.699111018253198 6.095242761576412 -1.511911074284260 9
-3.845470444131622 2.188972228155322 -0.700826403380234 1
-3.132881182227222 1.782618352675102 -0.700650631022673 1
-7.862980934392162 4.528721996354567 2.431346109693080 14
-9.077555932607051 5.226152674589051 2.418223834196549 11
-10.763682561987096 6.191892028167303 2.413733791513292 11
-11.032694558228032 6.341518737136603 2.015501647578334 8
-11.915974043087770 6.846455284333438 1.687402928787672 21
-11.927616668194142 6.847607806156009 1.203272184374169 22
-11.905458550827516 6.829362522306619 0.719305382603020 22
-10.904613283589796 6.252715542991275 0.219411653729528 2
-11.732459146707431 6.754640037944897 -0.236305583160819 4
-11.843979267164274 6.816092611544853 -0.716165225228443 7
-10.572365587947868 6.076924736562068 -1.497286753075642 9
-11.891388981840011 6.829569357234563 -2.171936112618565 6
-11.934870671777761 6.849003017273354 -2.674760497188405 2
-7.848795507989159 4.557111342285445 2.431863747783285 15
-9.056804246240530 5.254270394580466 2.417324029979174 11
-10.754979911835456 6.234443792703900 2.416405117448563 11
-11.001945447818581 6.375039521689211 2.013937302927932 8
-11.888051081766129 6.882948496887427 1.686671712727241 21
-11.901916973519421 6.888203239140166 1.203097872888673 22
-11.878089135754809 6.868879047564988 0.719096038778048 23
-10.904595829054248 6.300847589903552 0.219830511484023 2
-11.442464423412622 6.640971551081694 -0.230930241978135 6
-11.850683030783847 6.872364308349218 -0.717944647740703 2
-10.560744413029877 6.116925279046570 -1.498505446509693 18
-11.861837166236940 6.865007155772961 -2.170684636898244 6
-11.887099286105302 6.876858216465813 -2.669417845317862 2
-5.065028801128206 2.911344538450621 -0.717322955282698 1
-3.847314844888025 2.209624427592744 -0.702703616960717 1
-3.136543269712461 1.799951998547228 -0.702940338967191 1
-4.983200966525647 2.886337058313940 -0.707085930436666 1
-3.839966312390915 2.222370434111570 -0.702703616960717 1
-3.123443672317591 1.806957169673219 -0.701413867004179 1
-7.818633452859201 4.574333918033598 2.427205004971440 14
-9.041772623211889 5.287820091290904 2.418223834196549 11
-10.731457053684156 6.270957180128104 2.416023499457810 11
-10.989273958628832 6.416468418905465 2.015501647578334 8
-11.857094905662525 6.920401060505640 1.685696757980000 19
-11.858356267244565 6.915588977277586 1.201006135062730 22
-11.844891875764574 6.902197054121845 0.718468007303133 23
-10.847976629738811 6.318743547987808 0.219132415226532 2
-11.401391319525922 6.667775070265229 -0.230546289036515 6
-11.821449058081276 6.910665123068828 -0.717630632003246 5
-11.349449487808064 6.629425821186766 -1.149932869812602 5
-10.534185211401642 6.150749083362858 -1.497774230449263 27
-11.830976645713498 6.902389105792529 -2.169433161177922 6
-11.837091820417973 6.900419599720989 -2.663311957465813 2
-7.800954387797293 4.600616813311578 2.426687366881234 14
-9.030903539844861 5.321732029248798 2.420023442631300 12
-10.707219262904976 6.304517230982003 2.415260263476304 11
-10.961702177602296 6.451783096496640 2.014563040788093 8
-11.828947485300221 6.956663604958435 1.684965541919569 21
-11.827273781230879 6.952901370975021 1.200308889120748 22
-11.820726548714708 6.943501392164699 0.718468007303133 22
-10.823514099240098 6.352657563443682 0.219062605600783 2
-11.428003582802519 6.736982912200449 -0.231558528609878 2
-11.801909261672881 6.951855834835963 -0.717839975828218 5
-11.315938064852821 6.662936917874798 -1.148887000899630 5
-10.505175968337422 6.180614807516729 -1.496555537015211 27
-11.794399116520689 6.933575336458381 -2.166930209737278 6
-11.823088583802349 6.947664650868249 -2.665601665410331 2
-5.017666413958113 2.929738416111161 -0.713423136293733 1
-3.845835211917829 2.243724407911214 -0.705206568401361 1
-3.110650006970420 1.813349985082146 -0.699887395041166 1
-5.059251683774227 2.976559932545109 -0.720735296898042 1
-3.824750276596227 2.248456570269351 -0.702703616960717 1
-3.105993922874347 1.825191787307550 -0.700269013031919 1
-7.802262926864955 4.636329144084375 2.431863747783285 14
-9.013947664006832 5.354218551567448 2.420473344739988 13
-10.688523726146899 6.343858053713252 2.416023499457810 11
-10.943645142602001 6.490113186933935 2.015188778648254 8
-11.784101012655997 6.985764559599536 1.682040677677845 21
-11.804152099040360 6.992083794793852 1.200308889120748 22
-11.787323455030362 6.976558430601299 0.717839975828218 22
-10.801273245574031 6.390399975688069 0.219062605600783 2
-11.753527986524244 6.978734222393406 -0.716374569053415 5
-11.293780750937145 6.700425285675941 -1.148887000899630 5
-10.475000512653246 6.212184155684936 -1.495336843581159 27
-11.763326920145504 6.970675102944247 -2.165678734016956 6
-11.796605626135765 6.984832699962210 -2.664838429428825 2
-7.787688891622938 4.664528542194682 2.432381385873490 14
-8.977749273040402 5.373072096979996 2.415524421544422 11
-10.692702238157299 6.394381955115275 2.421747769319107 11
-10.914141618063715 6.524219898250289 2.013937302927932 8
-11.754053681547074 7.020731876841436 1.681065722930604 19
-11.772830577123534 7.029159843672295 1.199611643178767 24
-11.749177242210747 7.009475116009237 0.717002600528331 22
-10.780022526528953 6.426183151946087 0.219062605600783 2
-10.457125540030326 6.260939631992279 -0.212744834470486 21
-10.455137109065426 6.254792361377792 -0.638498666163915 13
-10.446124077624962 6.246924847911174 -1.064868864890888 5
-10.437302079331744 6.236703978619079 -1.492899456713057 27
-11.745234838114865 7.012683359174749 -2.166617340807198 9
-11.743493027982547 7.008863379235941 -2.658350923586022 2
-5.072734559591328 3.008378015735932 -0.724147638513386 1
-3.810080750500755 2.257765614100116 -0.701452141240395 1
-3.118506943412089 1.846484485769760 -0.704466810930203 1
-5.038873836503505 3.010927945269652 -0.720735296898042 1
-3.833101911067089 2.288615796640424 -0.707083781981844 1
-3.115414171075474 1.859371163483781 -0.705230046911710 1
-7.780462181113050 4.699032908662377 2.435487214414720 10
-8.953715445257721 5.405490142693034 2.414624617327047 11
-10.656303319972796 6.428293141558046 2.419076443383835 11
-10.883388624181444 6.560099375466470 2.012685827207610 8
-11.728709730722741 7.066836813364621 1.681309461617415 19
-11.738453768065789 7.067123979512109 1.198740085751290 22
-11.713138636722180 7.046313557722198 0.716374569053415 23
-10.744986064448952 6.461344888011774 0.218853176723535 2
-10.411852945745323 6.285789269213903 -0.212291071903117 8
-10.424203388574444 6.290763201285890 -0.638079978513971 15
-10.438513562347062 6.294429387038345 -1.066437668260345 5
-10.426275452129872 6.282088045745413 -1.494605627520729 9
-11.713145064597075 7.054672516618462 -2.165678734016956 6
-11.710996856261620 7.047809054301099 -2.656824451623010 2
-7.767312417952780 4.728172157899988 2.436522490595130 3
-8.945730612341453 5.441228201932192 2.417324029979174 11
-10.629894645699537 6.460536405768018 2.417931589411576 11
-10.857046826339259 6.595998211607687 2.012060089347449 8
-11.700120069291343 7.102601433610543 1.680578245556984 19
-11.698383530955576 7.098753389385180 1.197171282381833 22
-11.685055367762846 7.085086056110414 0.716165225228443 23
-10.720079818794581 6.494868629691789 0.218783367097786 2
-11.394325263589550 6.933307213434627 -0.232815101873362 2
-11.674684008001694 7.098319138873253 -0.716060553315957 5
-11.245642240545637 6.834769630636027 -1.151327361696564 5
-10.814889446623601 6.567802308097567 -1.553590389728820 36
-11.682931432749063 7.089376826014152 -2.164427258296634 6
-11.669538192243404 7.078463215273620 -2.653008271715479 2
-5.027804388771694 3.029376117297649 -0.720735296898042 1
-3.807364402678911 2.293125276277310 -0.703955092681039 1
-3.083346342649748 1.855592358019809 -0.699505777050413 1
-4.976477996069504 3.022178250651109 -0.714885568414595 1
-3.779473915364614 2.293441072075697 -0.700200665520073 1
-3.081886093348517 1.869398513124621 -0.700650631022673 1
-7.777939676603602 4.770062931008933 2.444804700038411 3
-8.925021284598419 5.471402975425541 2.416874127870486 10
-10.585514733227608 6.484270732376765 2.412970555531786 11
-10.846907792142499 6.639183955421656 2.014250171858012 8
-11.678642668655790 7.145471254790698 1.681065722930604 24
-11.666279492500996 7.132311390490803 1.196299724954356 22
-11.666609323522627 7.126919698548586 0.716479240965901 25
-10.714409783323299 6.542670706953159 0.219132415226532 2
-11.560507981068984 7.087064080642982 -0.236689536102439 14
-11.636211577673439 7.130679625761289 -0.715223178016070 5
-11.294279984475736 6.915721901239574 -1.158648444087368 5
-10.805442548406186 6.613803876029703 -1.555540299223303 36
-11.646317414152875 7.122900047343653 -2.162237175786071 9
-11.642650596206945 7.115074375230840 -2.652245035733973 2
-7.759598377413289 4.796168239338324 2.444287061948206 1
-8.911802414952239 5.504041352004468 2.418223834196549 11
-10.560612476584041 6.517275808719893 2.412207319550279 13
-10.820304200812185 6.674932032664682 2.013624433997852 8
-11.631225343769966 7.169576844877575 1.677653381315260 19
-11.639615762224736 7.171945684611914 1.196125413468861 22
-11.633156884561812 7.162364698551437 0.715955881403472 21
-10.713092927029765 6.590738742763006 0.219551272981027 2
-11.498273128345504 7.104250843710575 -0.235921630219199 2
-11.197829914258831 6.913221119832475 -0.689683231369514 5
-10.771623307597988 6.642306137222421 -1.553834128415630 36
-11.622632990996017 7.161481463514355 -2.162237175786071 9
-11.617743420757966 7.155671462543502 -2.652245035733973 2
-5.030236573380567 3.078911205842094 -0.724147638513386 1
-3.774815657314779 2.308681248162318 -0.700826403380234 1
-3.082370805326731 1.883703143946007 -0.702177102985685 1
-3.763775522189131 2.319113806300843 -0.700200665520073 1
-3.089149617490752 1.902687893925237 -0.705230046911710 1
-7.736250428196662 4.819139324871795 2.442216509587386 1
-8.883298008880343 5.531517382497451 2.415974323653110 10
-10.498315179414032 6.532083750258960 2.403430105762959 11
-10.795260833658705 6.711618290340922 2.013311565067772 8
-11.603183387219264 7.211111438147102 1.677409642628450 19
-11.614510087348419 7.212531831897572 1.196125413468861 22
-11.591113808863776 7.192397761501902 0.714909162278613 21
-11.603111001622123 7.197037575658205 0.238330062307544 26
-11.016419769471014 6.857117383783266 -0.680053415420812 10
-11.029167547204244 6.859711831149614 -1.136336573943967 5
-10.720232308690225 6.664971634161417 -1.549934309426666 27
-11.586239087226451 7.197778035430455 -2.160359962205588 9
-11.591026673147752 7.195145938479121 -2.651863417743220 2
-7.732470604318438 4.854331753832192 2.446357614309026 1
-8.861604351864784 5.558873930625105 2.415074519435735 10
-10.380114452752951 6.506385483423865 2.381296262299279 15
-10.756701736756947 6.739820369045839 2.010495744697047 8
-11.584254287068502 7.252709553741551 1.678140858688881 24
-11.579129466144604 7.246688187609967 1.195079544555889 21
-11.560856831801374 7.229637549084413 0.714595146541155 21
-11.580876804994027 7.236534983678376 0.238364967120418 33
-11.001233017186358 6.903736390297011 -0.226706759620313 8
-10.995312283932439 6.894672490774274 -0.680158087333298 10
-11.010219989545078 6.901343509779923 -1.136859508400453 5
-10.772094977279130 6.746847402610231 -1.560658811646319 9
-11.552259790675524 7.229872056449502 -2.158482748625106 9
-11.537545694482180 7.217861292133062 -2.645375911900417 2
-5.069309412208131 3.151685753093786 -0.732922231238557 1
-3.768673858060914 2.341232363153773 -0.702703616960717 1
-3.085825204392480 1.915530290140506 -0.705993282893216 1
-4.974712610934622 3.115793810638522 -0.720735296898042 1
-3.777634162598055 2.364196457363398 -0.705832306261522 1
-3.049160950994136 1.907547877551611 -0.699124159059660 1
-7.708948475323338 4.877162101427695 2.444287061948206 1
-8.849405608141446 5.596524003046889 2.417324029979174 11
-10.354537989558079 6.543338022700320 2.380914644308526 14
-10.728099050831917 6.774163185591796 2.009557137906806 8
-11.545843328294570 7.287702283693013 1.676434687881209 19
-11.535226008309891 7.275371131211568 1.193162118215440 22
-11.533860559198386 7.268883543064426 0.714490474628669 21
-11.557659677003715 7.281064183744054 0.238434776746167 26
-11.529723508801938 7.291605473043279 -0.238120633430296 35
-11.491624113121095 7.264703198232921 -0.712501708291437 5
-11.493085861163799 7.260013363856361 -1.189327265534543 17
-11.537857296726788 7.285477862365316 -1.675459733133968 36
-11.524012759597086 7.271110553898955 -2.158169879695025 9
-11.513941110497992 7.259137910041964 -2.645757529891170 2
-7.678845479102391 4.895733225524001 2.440145957226566 1
-8.843946614764510 5.634215376435574 2.420923246848675 6
-10.450369929684509 6.652492651358521 2.408009521651996 11
-10.709387163165527 6.814751459149520 2.010495744697047 6
-11.524963233678349 7.328079865424455 1.676922165254829 21
-11.504715494367948 7.312386010804740 1.192639183758955 21
-11.508417152346167 7.309099945222355 0.714490474628669 21
-11.496306479608247 7.295777942441211 0.237666870862927 26
-11.219209617072938 7.150177944702712 -0.232221720054494 15
-11.162547118623122 7.108588170064850 -0.693556092131492 7
-11.402124893194719 7.258360476444865 -1.182529117600226 11
-11.506934526139647 7.319437036964422 -1.674484778386726 36
-11.489834767093980 7.302927834980919 -2.156292666114542 9
-11.488531843609575 7.299284839721829 -2.645757529891170 2
-4.922975771210310 3.108569474878887 -0.714885568414595 1
-3.778967361874254 2.384350836897569 -0.707709519842004 1
-3.055769745177601 1.926556145171962 -0.702177102985685 1
-4.952839213070587 3.150447644585705 -0.720735296898042 1
-3.761037033453863 2.390511490962994 -0.705832306261522 1
-3.052340351352782 1.939316699086631 -0.702940338967191 1
-7.671461256365002 4.928772961238241 2.443251785767796 1
-8.810119163540042 5.658167623737365 2.417324029979174 16
-10.442439980183572 6.701353896457094 2.411825701559526 13
-10.688859714730594 6.854225294021663 2.011121482557208 6
-11.472958694382802 7.354202839596772 1.673266084952675 17
-11.479120413126855 7.352500412668954 1.192639183758955 21
-11.472740199239407 7.342767375656860 0.713862443153754 21
-11.469488898227366 7.337865007748061 0.237666870862927 26
-11.076402121182838 7.113654050099133 -0.229778383153275 13
-11.067508547158035 7.105214208407435 -0.689264543719570 10
-11.076537313612246 7.105551804495160 -1.151327361696564 11
-11.481701196324686 7.362634449191196 -1.674728517073537 45
-11.454674866360399 7.339662496780878 -2.154728321464140 13
-11.456369015437733 7.335108390092568 -2.644231057928158 2
-7.654209890885315 4.955521330558057 2.443251785767796 1
-8.789671361593884 5.686293415328352 2.416874127870486 15
-10.418511314259634 6.734879614845773 2.411444083568773 13
-10.668187137480604 6.893638830170637 2.011747220417369 8
-11.448508196710973 7.392208105754923 1.673266084952675 24
-11.451711480335733 7.391444764018781 1.192464872273459 21
-11.436968553020341 7.376274872265875 0.713234411678838 22
-11.441730843511930 7.373692354656467 0.237597061237178 28
-11.051503353373263 7.152274570024211 -0.229778383153275 12
-11.040531699428866 7.139707187651645 -0.689055199894598 10
-11.051666827094129 7.144172845691516 -1.151327361696564 11
-11.445550363356363 7.393129047214589 -1.673022346265864 45
-11.428612998525884 7.376535974819597 -2.154415452534060 13
-11.435643979761709 7.378247017610406 -2.645375911900417 2
-4.941258977955479 3.168579546828463 -0.720735296898042 1
-3.732291331510489 2.391491599067271 -0.702077879100556 1
-3.038938699722118 1.945725100445972 -0.701413867004179 1
-4.904044816234129 3.167714529116857 -0.716835477909078 1
-3.727659714593252 2.405997647319898 -0.702703616960717 1
-3.048625227149400 1.966964871399889 -0.705230046911710 1
-7.629524402696155 4.979318786172007 2.441181233406976 1
-8.757980073818175 5.713612646216417 2.414174715218359 15
-10.400797768687903 6.780194765743147 2.413352173522539 11
-10.629607540147687 6.924067952440937 2.009244268976725 6
-11.415049280533236 7.432863044301115 1.672534868892244 19
-11.421203540555160 7.431194556284969 1.192116249302468 21
-11.403158443781958 7.413789263904214 0.712815724028895 21
-11.409980210799365 7.415391587361305 0.237527251611429 28
-11.016840720997344 7.187269202977321 -0.229603859088902 10
-11.019727675033788 7.186411046307373 -0.689473887544542 10
-11.010384626864509 7.174841435603943 -1.149758558327107 11
-11.407098518210304 7.430521304004708 -1.671559914145003 45
-11.391927140966175 7.414976205100213 -2.152851107883657 13
-11.390420997142929 7.408336633682465 -2.641178114002133 2
-7.608868654322628 5.003797508762462 2.440145957226566 1
-8.745499235504230 5.746904487569272 2.415974323653110 15
-10.384821007692812 6.818958114386678 2.414878645485551 11
-10.607024686186021 6.962213973739113 2.009557137906806 8
-11.390338254628249 7.470675843422193 1.672534868892244 19
-11.380198379858271 7.461185000658648 1.190547445933011 21
-11.377210017852219 7.453548547722774 0.712815724028895 22
-11.381980984988100 7.450997169548176 0.237457441985679 26
-10.978317536866289 7.216893672358438 -0.229324620585905 10
-11.002513382349198 7.227300430030448 -0.689892575194486 13
-10.975280009735139 7.206669679199070 -1.148712689414135 5
-11.372436950417034 7.461773797786016 -1.670097482024141 36
-11.370579517432965 7.454878598111385 -2.153476845743818 13
-11.359565591155993 7.444823031218461 -2.640033260029874 2
-4.901825507898187 3.193022205147547 -0.718297910029939 1
-3.741571768432431 2.435379483145834 -0.707083781981844 1
-3.024937695816891 1.967421287777542 -0.701413867004179 1
-4.907807364621011 3.220149608881093 -0.720735296898042 1
-3.723563305578077 2.441275077748520 -0.705206568401361 1
-3.026261836441239 1.983349067148833 -0.703321956957944 1
-7.589012484861843 5.026868268635815 2.439110681046155 1
-8.735134548741978 5.783852156883122 2.418673736305237 15
-10.359317814937782 6.854083054160601 2.414497027494798 13
-10.585526640888462 6.998439275342621 2.009870006836886 6
-11.359223021097636 7.507106560009900 1.671803652831813 24
-11.345418170981894 7.492294476581971 1.189501577020039 21
-11.352430604399046 7.491235753591062 0.712815724028895 22
-11.342548814061459 7.481873622323871 0.237178203482683 26
-10.954325092506579 7.253259404300515 -0.229324620585905 10
-10.965559962650765 7.257945809704105 -0.689159871807084 13
-10.949659677033164 7.241926301170088 -1.148538377928639 11
-11.350942496953374 7.501634110265032 -1.670584959397762 36
-11.331302345985460 7.485813145536740 -2.150973894303175 13
-11.351199735750781 7.493267691603849 -2.643849439937405 2
-7.584273906701473 5.061907745057158 2.443251785767796 1
-8.712664050311430 5.810624610119575 2.417773932087862 15
-10.359403945235876 6.903640331419389 2.419839679365341 13
-10.561033038276866 7.035347022005527 2.009870006836886 6
-11.327656236719859 7.540333921276877 1.670828698084572 21
-11.324172262404174 7.535162920168416 1.190024511476525 22
-11.319559454461313 7.526394104714021 0.712397036378951 22
-11.311013306792930 7.515019273637225 0.237038584231185 26
-10.920622449055365 7.285903894401311 -0.229150096521533 13
-10.924813241619862 7.283190229894661 -0.688113152682225 13
-10.925971890017742 7.281208513407723 -1.148712689414135 11
-11.318078656378175 7.536809534571489 -1.669610004650520 36
-11.299837913174725 7.518970718058516 -2.149722418582853 13
-11.321704860533282 7.530670512606101 -2.643086203955899 2
-4.860667672681377 3.212328000237506 -0.715373045788216 1
-3.721611737779661 2.458613248381376 -0.706458044121683 1
-3.019668174507605 1.993373607913668 -0.703321956957944 2
-4.872556782140034 3.244679024445448 -0.718785387403560 1
-3.703570801989446 2.464375208422032 -0.704580830541200 1
-3.019230273953938 2.008251290323920 -0.704848428920956 1
-6.690456243999008 4.497495195609639 2.160103750425638 1
-8.682623235273821 5.834480681247942 2.415074519435735 15
-10.301014575548367 6.916776380629710 2.411825701559526 13
-10.544206341415448 7.074732433954742 2.011121482557208 6
-11.288077614974576 7.570982984217041 1.668878788590090 21
-11.300777561641983 7.573783021985046 1.190198822962020 22
-11.284581809468877 7.557221597191790 0.711769004904036 25
-11.286373799378802 7.555568715953035 0.237073489044059 28
-10.903040562741374 7.326539204389545 -0.229289715773031 13
-10.887717997902282 7.313484868110549 -0.687380449294824 13
-10.901766457773547 7.317400307304675 -1.148712689414135 11
-11.283459210144128 7.570740960148551 -1.668391311216469 36
-11.276804444458756 7.560568783333527 -2.150348156443014 13
-11.288514743831888 7.562709636658427 -2.641178114002133 2
-6.684313299499897 4.527321949187486 2.163209578966868 1
-8.669683120352278 5.867610249727655 2.416874127870486 15
-10.269889734242742 6.945398617197427 2.409917611605761 13
-10.519446677719168 7.111495481051792 2.011121482557208 6
-11.261264324233998 7.607262772506864 1.668635049903279 19
-11.267666548673184 7.608723976211662 1.189501577020039 22
-11.244888570808262 7.587628960889830 0.710931629604149 25
-11.256282521047423 7.589600358795200 0.236968774605436 26
-10.857529322036097 7.351099996019391 -0.228870858018536 14
-10.868368469070067 7.352907121899988 -0.687694465032282 10
-10.864604723855864 7.347596963369848 -1.147492509015667 11
-11.251712701012757 7.603670691715095 -1.667416356469228 36
-11.246759442514341 7.594606022044593 -2.149409549652772 13
-11.247402132381032 7.592182178131839 -2.637743552085355 2
-4.851310512118944 3.255031504122306 -0.717322955282698 1
-3.727760759175076 2.499288851408959 -0.710838209142809 1
-3.010923019377787 2.017159657458670 -0.704466810930203 1
-4.830621283858276 3.264432220664704 -0.715860523161836 1
-3.709629824852619 2.505003965932030 -0.708960995562326 1
-2.997354561320293 2.023263826984787 -0.702940338967191 1
-6.652512180346132 4.539737702378464 2.158033198064818 1
-8.648119021120845 5.899346815246423 2.416874127870486 14
-10.250853503580888 6.987416108973657 2.411444083568773 13
-10.478232517352994 7.137051509868532 2.007992793256403 6
-11.234947529561396 7.649603492795974 1.668878788590090 21
-11.234449379206547 7.643526110929150 1.188804331078057 24
-11.221637691764062 7.629080549495491 0.711140973429121 23
-11.228389638870084 7.630805718767639 0.236968774605436 28
-10.830151101695911 7.387828180254011 -0.228835953205661 11
-10.844645973965202 7.394942734674825 -0.687903808857254 10
-10.825718656155113 7.376501536155329 -1.146098017131705 5
-11.218846293384807 7.641506689661829 -1.666685140408797 27
-11.210683176989964 7.630219110910419 -2.147845205002370 11
-11.220831947893528 7.631396684130897 -2.637743552085355 2
-6.622297922278742 4.553081229678056 2.153374455252973 1
-8.634933333397191 5.932406567750844 2.418673736305237 15
-10.219533277296028 7.015814983999566 2.409535993615008 15
-10.453255721421302 7.173583885674105 2.007992793256403 6
-11.209518756689040 7.686817861275934 1.668878788590090 21
-11.197839903188548 7.675936121289281 1.187758462165085 24
-11.194938864890142 7.668204896015920 0.711140973429121 25
-11.186521509575144 7.656703704653507 0.236619726476690 26
-10.797704782454693 7.421056893582679 -0.228696333954163 18
-10.808539114589296 7.422949419213403 -0.687171105469852 18
-10.809759332264035 7.421011257452784 -1.147143886044677 11
-11.195081406136950 7.679790649620847 -1.666928879095607 36
-11.177172191496304 7.661768742929307 -2.146280860351967 6
-11.181168877867806 7.661640289381731 -2.634690608159330 2
-4.812061447572044 3.277645381804350 -0.714885568414595 1
-3.713487770498933 2.527475347153721 -0.711463947002970 1
-2.991897175921264 2.034818299891962 -0.703321956957944 1
-4.810987608222912 3.300322374504411 -0.716348000535457 1
-3.685534037487557 2.526373308528584 -0.707709519842004 1
-2.986395627286824 2.046359312517369 -0.703703574948697 1
-6.602389811972889 4.575121946897793 2.152339179072563 1
-8.605683123222564 5.961079888133745 2.416874127870486 15
-10.186062120488694 7.050533924546332 2.408009521651996 15
-10.439890071642523 7.220838327547225 2.010495744697047 6
-11.170124011794085 7.723028956006840 1.667416356469228 21
-11.172909413031352 7.719191719503078 1.188107085136076 24
-11.170045535897026 7.711454302019134 0.711350317254092 25
-11.157039486083974 7.699600315016694 0.236619726476690 26
-10.770432723136375 7.460582614195027 -0.228696333954163 22
-10.765179115518949 7.454163419888091 -0.686229058257479 23
-10.782487359242422 7.460581160505375 -1.147143886044677 11
-11.160612802391007 7.719332304208835 -1.666197663035176 36
-11.141170689037569 7.700136921951253 -2.145029384631646 4
-11.154627902798602 7.703685527919690 -2.635072226150084 2
-6.580043328706251 4.593717299238988 2.150268626711742 1
-8.585868152991672 5.989584585718250 2.416874127870486 14
-10.162625701022066 7.084273357554685 2.408009521651996 15
-10.411379637848908 7.254977642432999 2.009870006836886 6
-11.136306769253441 7.754356252376860 1.666197663035176 21
-11.142625826855301 7.755868972478354 1.187758462165085 24
-11.125023338383514 7.737853268550827 0.710198926216748 25
-11.128161249562789 7.734273549633927 0.236549916850941 26
-10.742684958499446 7.496988584308556 -0.228661429141289 20
-10.738762773039428 7.488678617142361 -0.686124386344994 23
-10.756379380453250 7.498173612852032 -1.147143886044677 11
-11.125179991017587 7.749492033573204 -1.664735230914315 36
-11.118817439989339 7.739297050218036 -2.145655122491807 4
-11.134115215719349 7.747060711534099 -2.636598698113096 2
-4.801545092427143 3.321029301737592 -0.716835477909078 1
-3.656306016676566 2.527028598948413 -0.703955092681039 1
-2.970798075777933 2.051712916125171 -0.701795484994932 1
-4.842629591990526 3.373241554291821 -0.724635115887007 1
-3.665740191282574 2.551553022826331 -0.707396650911924 1
-2.981345078749572 2.074404735321766 -0.705993282893216 1
-6.571095233812811 4.619956654168069 2.152339179072563 1
-8.562769653261778 6.015782902717491 2.415974323653110 14
-10.147474837777057 7.126474306449715 2.410299229596514 15
-10.374328448079316 7.280385343941765 2.007367055396243 6
-11.104295873890775 7.789761912863166 1.665466446974746 21
-11.116845172569526 7.792776606875938 1.187758462165085 24
-11.097666664226026 7.773556763781330 0.710094254304262 25
-11.107648018352258 7.777658874230394 0.236689536102439 26
-10.698132378905713 7.518773366182540 -0.228242571386794 16
-10.713870374477613 7.524248462494683 -0.686124386344994 21
-10.731455398488917 7.533801824773032 -1.147143886044677 11
-11.091295088439125 7.780641746713172 -1.663516537480263 36
-11.082030457456044 7.771256862135004 -2.143777908911324 4
-11.092285710920688 7.772673794720571 -2.632782518205565 2
-6.539972207824852 4.630558437060384 2.147162798170512 1
-8.549136849479142 6.048647149751281 2.417773932087862 13
-10.122183923613877 7.158951719477176 2.409917611605761 15
-10.353355128056227 7.317027985089451 2.007992793256403 6
-11.081645654917557 7.828833061241957 1.665953924348366 21
-11.079548581048769 7.821555225534278 1.186538281766618 26
-11.073459652370632 7.811466495640895 0.710198926216748 25
-11.075258330293343 7.809840782890887 0.236549916850941 26
-10.673140405959424 7.554208310821394 -0.228242571386794 17
-10.690490801206904 7.560888843840626 -0.686229058257479 23
-10.686890999094931 7.555545006902110 -1.145052148218733 11
-11.071917802111484 7.821960640120164 -1.664491492227504 27
-11.056199108263218 7.807963470438589 -2.143777908911324 4
-11.061637409374349 7.806018513155002 -2.631637664233306 2
-4.782663948025838 3.355081122428845 -0.717322955282698 1
-3.655193933720178 2.563199140167121 -0.707083781981844 1
-2.968018469685402 2.079773275120188 -0.704466810930203 1
-4.765026566174499 3.366340946158026 -0.716348000535457 1
-3.666036832162002 2.588980298429141 -0.710838209142809 1
-2.954689110798659 2.085076290781832 -0.702940338967191 1
-6.515093662054753 4.648886998688911 2.144574607719487 1
-8.528496723589825 6.081072037350106 2.418223834196549 13
-10.092679637709603 7.193724273627149 2.409154375624254 15
-10.316813426855111 7.348049877106421 2.006115579675920 6
-11.049642914460399 7.867094061781413 1.665466446974746 19
-11.045936386550931 7.858646253663221 1.186015347310132 24
-11.044754818136589 7.852000286070369 0.710198926216748 23
-11.040039413330502 7.845747633163970 0.236410297599442 26
-10.656777040320025 7.601405188984232 -0.228486905076916 24
-10.653249326053611 7.596083891829752 -0.685705698695050 23
-10.660749401215057 7.595819808321295 -1.145226459704228 11
-11.046408714865944 7.864791385340090 -1.664978969601125 27
-11.024288458841182 7.846143176617402 -2.143152171051163 4
-11.036152434647517 7.848784679157147 -2.632400900214813 2
-6.487090975796425 4.661447746246326 2.140433502997846 1
-8.517781889099583 6.116139822027846 2.420923246848675 7
-10.062389190712624 7.222574032306041 2.407627903661242 15
-10.305231099491026 7.391431768104074 2.008618531116564 6
-11.013814298154164 7.896752575858322 1.664004014853884 21
-11.021435050533730 7.896393070271568 1.186189658795628 26
-11.013784000446901 7.885094888799605 0.709884910479290 25
-11.007456646771180 7.877659445292490 0.236270678347944 26
-10.628263031112771 7.634369297590158 -0.228417095451167 29
-10.613400097660943 7.620885323148406 -0.684763651482677 23
-10.635502138603810 7.631130362911326 -1.145226459704228 11
-11.017040844015641 7.899065964631094 -1.664491492227504 27
-10.991786783285249 7.878054881894197 -2.141900695330841 4
-11.000487501423931 7.878479919839261 -2.630111192270294 2
-4.746187904864813 3.379177677642097 -0.715373045788216 1
-3.630772958123462 2.584072847656768 -0.705832306261522 1
-2.945427171960870 2.094753927852755 -0.702558720976438 1
-4.731729505857063 3.392584635270611 -0.714885568414595 1
-3.625395056479418 2.598400222511992 -0.706458044121683 1
-2.946445143300722 2.110225468952883 -0.704466810930203 1
-6.482479803584267 4.694257273312455 2.144574607719487 1
-8.474784022910072 6.132466618792184 2.415074519435735 8
-10.043803144095214 7.265159234190040 2.409535993615008 15
-10.262061473259530 7.417580792510202 2.005489841815760 6
-10.989624343229577 7.940554980959993 1.664735230914315 21
-10.982727227307242 7.929737754041224 1.185143789882656 24
-10.975091501682293 7.918397894099920 0.709256879004375 26
-10.983375288318268 7.921460089506518 0.236375392786568 26
-10.596970607788771 7.670927418162489 -0.228347285825417 29
-10.591588398212826 7.661398292264910 -0.685077667220135 23
-10.615533860337337 7.675897354391751 -1.146098017131705 11
-10.971925094653365 7.927766385822283 -1.662054105359401 18
-10.974047885252581 7.926385288929549 -2.144090777841404 2
-10.995416395046757 7.935980450839491 -2.635835462131590 2
-6.469999275808160 4.718004620297968 2.145609883899897 1
-8.452826470517874 6.159388656085160 2.414624617327047 12
-10.024416469000062 7.301893474100828 2.410680847587267 15
-10.237407464646001 7.451570230306104 2.005489841815760 6
-10.955206297164491 7.971114584303574 1.663516537480263 21
-10.956370882541085 7.966114189585062 1.185143789882656 24
-10.942309537113021 7.950053233311260 0.708838191354431 25
-10.945720440994197 7.949612956020679 0.236131059096446 26
-10.718525102581856 7.813217802989144 -0.231523623797003 9
-10.564509668720945 7.695303207489681 -0.684972995307649 5
-10.609349095152188 7.725130941531266 -1.148189754957649 5
-4.733612215434150 3.444222257745237 -0.718785387403560 1
-3.252520459384273 2.365697403902534 -0.637001141643820 1
-2.926876993074420 2.127281197273292 -0.703321956957944 1
-4.725699369848503 3.414554901768595 -0.715860523161836 1
-3.548590414959832 2.563092047317654 -0.693317549058303 1
-2.948242531290950 2.127904415079591 -0.706756518874722 1
-3.142377422899942 2.288102393643161 -0.340081708201362 1
-3.205501388342489 2.332353967011610 -0.486746157560159 1
-6.443323061193138 4.734822943032650 2.142504055358667 1
-8.433335898783518 6.192635253848853 2.415524421544422 13
-10.002334302973917 7.342070912000796 2.411825701559526 15
-10.214805815697185 7.492547165565495 2.006428448606001 8
-10.922715383765315 8.008866273730467 1.663029060106643 21
-10.906206905958260 7.990909533669463 1.182877740571217 22
-10.913097638003102 7.990105403678257 0.708838191354431 25
-10.921351157119913 7.993220725225710 0.236235773535070 26
-10.899325672733788 8.006350664702644 -0.236061249470697 2
-3.166988432619245 2.324682713600498 -0.205889651859741 1
-3.169309489113726 2.325535370912386 -0.343916560882259 1
-3.168115747394337 2.322958574778337 -0.482358861197574 5
-3.170539055899630 2.323884660514795 -0.622609170860119 10
-2.949153865240954 2.160035629076439 -0.710572698782253 1
-6.430692259329950 4.758461957391157 2.143539331539077 1
-8.422155486804586 6.227518803168014 2.418223834196549 11
-9.995298776225980 7.388036060012371 2.416023499457810 16
-10.183547689968366 7.521685034189412 2.005176972885679 8
-10.897693935037136 8.046222374198255 1.663272798793453 21
-10.894077370545837 8.037677813218698 1.184446543940674 26
-10.889756652617377 8.028621029767914 0.709047535179403 25
-10.873857889169402 8.013970392349375 0.235782010967700 26
-3.139792077285164 2.322475981637845 -0.068169099544029 6
-3.151231432618387 2.329236171809531 -0.205366292297312 11
-3.151965772798746 2.328928392135257 -0.342870691969287 13
-3.169976913987209 2.340526291439557 -0.483821293318435 11
-3.161225989514711 2.333212711224791 -0.622296301930038 12
-2.935654681911541 2.165142267104923 -0.709046226819241 1
-6.417975498873520 4.782069243307126 2.144574607719487 1
-8.392079610687667 6.248430649115248 2.415524421544422 12
-9.950270400818786 7.405902560638401 2.411062465578020 15
-10.169644201013975 7.563665667498311 2.007367055396243 6
-10.864579593447555 8.077578605951306 1.662297844046212 21
-10.854569029707458 8.064254151590221 1.183052052056712 24
-10.864676552571602 8.065879155750945 0.709152207091889 27
-10.855251849942670 8.055943879390664 0.235956535032073 26
-3.136884378108326 2.336458663170442 -0.068273813982653 18
-3.140285707415735 2.337288236887777 -0.205156948472340 15
-3.149020900663958 2.342935804607483 -0.343393626425773 28
-3.163791066361708 2.352209840384061 -0.484065032005246 25
-3.140787750215138 2.334256307860742 -0.619793350489395 12
-2.939491614589181 2.183059131782970 -0.711717552754512 2
-6.402082297592896 4.803325723576580 2.144574607719487 1
-8.360398567016663 6.268042608725352 2.412375106783609 13
-9.925656832950848 7.438858126189599 2.411062465578020 15
-10.144506265639210 7.597347835351272 2.007367055396243 6
-10.828198977338392 8.106424405473877 1.660835411925350 21
-10.824576579764093 8.097817883087490 1.182703429085721 24
-10.823472226054005 8.091100749668179 0.708210159879516 25
-10.822070308236574 8.087108792752579 0.235816915780575 7
-3.117920875134919 2.338449359342432 -0.068029480292531 30
-3.119731927369622 2.338106544486211 -0.204319573172453 28
-3.131666920615142 2.346197841455583 -0.342347757512801 33
-3.128958583266700 2.342463993891703 -0.479921474329471 25
-3.136192887294472 2.347025847427989 -0.620419088349556 14
-2.859912915996170 2.138709814013767 -0.694163125179870 2
-2.503562882144771 1.871541691011303 -0.721642982335119 1
-6.381352192803066 4.824428186381525 2.143539331539077 1
-8.335813988141817 6.297468218431360 2.411925204674921 12
-9.893625326693211 7.471638039967344 2.409917611605761 15
-10.107131801334639 7.627338804905932 2.005489841815760 6
-10.799999455155429 8.147252777718636 1.661079150612160 21
-10.796414870552077 8.138636875655722 1.182877740571217 22
-10.788958284831054 8.127111305825959 0.707896144142058 25
-2.635788759172850 1.984767157662839 0.057592941243036 1
-3.047110598640281 2.302840062129977 -0.066668192590423 38
-3.109137654629350 2.348864261439832 -0.204214901259967 30
-3.119866348952706 2.355259339572856 -0.341999134541811 28
-3.117182527995705 2.351525489915268 -0.479433996955850 25
-3.116529206077009 2.350179270610721 -0.618229005838992 18
-2.784634183120654 2.098372366745253 -0.677753551577487 3
-6.368393016191119 4.847903272885403 2.144574607719487 1
-8.321088978440017 6.329795473746588 2.413724813109672 12
-9.862543065944067 7.499652017986495 2.408391139642748 15
-10.084928704082630 7.663203593442615 2.006115579675920 6
-10.777665108385772 8.186624280905008 1.661810366672591 21
-10.774127809030784 8.178008119157960 1.183400675027703 26
-10.765131087222882 8.165258066516850 0.708105487967030 27
-2.635566341736042 1.998329554844956 0.057732560494534 15
-2.655944670197786 2.021090827214911 -0.058256132687652 23
-2.867658599023334 2.181408282903777 -0.188828130124541 10
-2.837633814775190 2.157005359798898 -0.311843247551121 12
-2.658849033778948 2.019639489657117 -0.409968471214916 9
-2.647759815505037 2.010487553049116 -0.526558409325417 9
-2.661924567950537 2.019778550195621 -0.649513820261759 12
-2.580489329959717 1.957278657017249 -0.747737304639007 1
-6.298465016543511 4.831235882910747 2.126974912652515 1
-8.306001748481620 6.368814090187574 2.416424225761798 12
-9.836547610799499 7.536943737521021 2.408772757633502 15
-10.050500199847216 7.695311667342749 2.004864103955599 6
-10.742858174432422 8.222451842329761 1.661079150612160 21
-10.725090678726142 8.202917476604824 1.181308937201759 26
-10.743065930568433 8.210723449727734 0.708628847529459 25
-2.620279339579934 2.001905905634140 0.057558036430161 40
-2.653279832094139 2.034462126490734 -0.058360847126276 115
-2.644061152748713 2.026660798496716 -0.174592750026461 33
-2.646228646389249 2.026856164035903 -0.291623115233664 63
-2.649498449345945 2.028627025963177 -0.409724732528106 28
-2.651355170257054 2.028580980274725 -0.528748491835980 40
-2.640467088105571 2.018789525574097 -0.646079258344981 29
-2.579491469244360 1.971456866389786 -0.749536913073758 1
-6.290734879703659 4.860278871554113 2.130080741193746 10
-8.280208792216232 6.392750067293205 2.415074519435735 13
-9.805282439331519 7.564724555795970 2.407246285670489 15
-10.020448860858160 7.727934859896109 2.004238366095438 6
-10.707670747698520 8.251972517015425 1.659860457178109 21
-10.704283498753339 8.246384665805685 1.182180494629235 22
-10.711174466023154 8.245737041962029 0.708419503704488 25
-2.613626373181877 2.010584057892248 0.057558036430161 49
-2.633501006771812 2.033932883374372 -0.058081608623280 120
-2.626258050684271 2.026875757267504 -0.173860046639059 43
-2.628095060102406 2.027561710652584 -0.290402934835197 51
-2.650617380250546 2.043462014369783 -0.410943425962157 43
-2.633659554532401 2.028923259364160 -0.526558409325417 34
-2.644292373677134 2.036379267697689 -0.648750584280252 33
-2.535874542024972 1.951476520279436 -0.738739262465253 1
-6.266108012624202 4.876275814662355 2.127492550742720 15
-8.245955612239555 6.414679793101821 2.411925204674921 12
-9.782140520646827 7.604226650541773 2.408391139642748 15
-10.002772335071469 7.770136542797072 2.006115579675920 6
-10.674218048382901 8.288727668917074 1.659372979804488 21
-10.680155280230659 8.287363621139720 1.182703429085721 24
-10.671277710960480 8.274508771414473 0.707686800317086 27
-2.606239659001503 2.020149972722331 0.057558036430161 50
-2.629541924879704 2.045568790790367 -0.058151418249029 95
-2.621964834646829 2.038939982730955 -0.174069390464031 50
-2.630440918981409 2.044058259087055 -0.291448803748169 41
-2.627433105369655 2.040985568991427 -0.408506039094054 39
-2.624645058190386 2.037351209225057 -0.526245540395337 37
-2.634065423013229 2.043190579395592 -0.647987348298746 39
-2.541025111797997 1.970310879864125 -0.742338479334755 1
-6.249048458276395 4.898118905523594 2.127492550742720 22
-8.223104267178186 6.440787457774787 2.411475302566233 13
-9.758416221006396 7.637833636554411 2.408772757633502 15
-9.972477019348222 7.802570896374184 2.005489841815760 6
-10.648236793825067 8.325301768124341 1.659616718491298 21
-10.646452485046115 8.320913096636303 1.182180494629235 22
-10.632884814857148 8.304331906383780 0.707058768842171 25
-2.601102696168186 2.030011777578045 0.057592941243036 64
-2.617663354375809 2.051035139468540 -0.058046703810405 52
-2.615189049556079 2.047623520666202 -0.174069390464031 46
-2.617013985665022 2.048315730171244 -0.290751557806188 35
-2.617523238896126 2.047241301637479 -0.408018561720434 25
-2.619430932708617 2.047260078821924 -0.526558409325417 24
-2.623823178191372 2.049955335616093 -0.647224112317240 39
-2.546765729097600 1.988320214270191 -0.745937696204256 1
-6.203103432178615 4.897158240392436 2.117657427028825 21
-8.202501861464679 6.473297888776574 2.412375106783609 13
-9.730356615906844 7.673548718119967 2.408772757633502 15
-9.938974167772024 7.832443109543250 2.004238366095438 6
-10.628567003724054 8.372872488270652 1.661322889298970 21
-10.606383591025034 8.349398772142031 1.180960314230768 24
-10.610111609173646 8.346336399249317 0.707477456492115 25
-2.588929142027485 2.035823420962563 0.057488226804412 69
-3.046877406136752 2.404552344348287 -0.067750241789535 30
-3.059264867750624 2.413461982930358 -0.204214901259967 33
-3.063598652179653 2.415146438459002 -0.341301888599829 30
-3.068811599666804 2.417519521261244 -0.479677735642660 25
-3.075938879865369 2.422264288629518 -0.620106219419475 16
-2.616651513469259 2.059101698676924 -0.647224112317240 39
-2.533334500380792 1.992821822319083 -0.744138087769506 1
-6.179922997477590 4.913971908851337 2.115586874668004 15
-8.185567736659440 6.504099734408963 2.413724813109672 13
-9.697169086420310 7.699669485169427 2.406864667679737 16
-9.908478821924337 7.864632723239720 2.003612628235277 6
-10.591411478448105 8.400670577810692 1.659860457178109 22
-10.574051719638241 8.383895411136537 1.180611691259778 19
-10.582478273144719 8.384562071449071 0.707582128404601 27
-2.580596075124896 2.043156140103375 0.057453321991537 64
-3.040030801832478 2.416417575215401 -0.067785146602409 36
-3.051244718527445 2.423593600784124 -0.204214901259967 32
-3.048908185523728 2.420869958020532 -0.340604642657848 30
-3.069684533604599 2.435620044898876 -0.481140167763522 27
-3.066341573860046 2.431223880087277 -0.619793350489395 20
-2.612525144879025 2.070661914417608 -0.647987348298746 39
-2.508380488037959 1.986692635845502 -0.738739262465253 1
-6.161224497710545 4.934306315308533 2.115069236577800 8
-8.158631476007177 6.531621844164654 2.412825008892296 13
-9.671949332982418 7.737612550246542 2.407627903661242 15
-9.893309257258080 7.909039652273412 2.006115579675920 6
-10.554347374694999 8.434476532903123 1.658885502430868 21
-10.563404556099501 8.435674056233159 1.182703429085721 26
-10.554707333909292 8.422696509323981 0.707686800317086 26
-2.576216676702785 2.055094821171861 0.057523131617286 64
-3.001917280360679 2.403269290988370 -0.067121955157792 47
-3.039222558600228 2.432264782426272 -0.204005557434995 39
-3.045107220719392 2.435230993243705 -0.341127577114334 31
-3.057635870822072 2.444375558845877 -0.480652690389902 27
-3.052779995754180 2.438747445662254 -0.618854743699153 22
-2.606815593020092 2.080993548173562 -0.648368966289499 40
-2.499558854736115 1.994657452319715 -0.738289360356565 1
-6.142459356078724 4.954570071787715 2.114551598487594 8
-8.132375275931592 6.554972100362416 2.411475302566233 13
-9.638592482735021 7.763485758968020 2.405719813707477 15
-9.856409554166335 7.936092443539809 2.004238366095438 6
-10.520133117157867 8.464452009029154 1.657910547683626 21
-10.533894202641299 8.472495826283357 1.182703429085721 26
-10.515901784202818 8.451980688714533 0.707058768842171 25
-3.021808796798212 2.434811117423136 -0.203377525960080 34
-3.044676032570967 2.448857419877477 -0.618854743699153 22
-2.596475611007541 2.087619989249784 -0.647605730307993 42
-2.517237041867136 2.022464245396322 -0.745487794095569 1
-6.103501160297335 4.956644228562990 2.106787027134519 1
-8.118522344581130 6.590688839942096 2.414174715218359 4
-9.160135835118362 7.430976718480508 2.292760888444562 14
-9.820831300023457 7.961270149378088 2.002361152514955 8
