ply
format ascii 1.0
element vertex 818
property double x
property double y
property double z
property uchar intensity
end_header
1.023798732585658 -0.765342075049902 0.066990023990968 68
1.028519122812133 -0.768311301273616 0.022408889865472 77
1.020643159741446 -0.765485218707271 -0.022269270613974 81
1.027657596976776 -0.770185711119177 -0.067304039728426 92
0.996584432476813 -0.746626095167893 -0.108944678434573 73
0.991604954778274 -0.742355272822967 -0.152092940569624 78
0.980682568403182 -0.733644293754032 -0.193978736649886 54
1.003334549692595 -0.758265550906578 0.336982396723482 68
1.016904000791783 -0.768241786020166 0.294235979081775 65
1.015346656595583 -0.766508698891406 0.247288458008002 79
1.012423270200974 -0.763747103379199 0.200861853111656 91
1.027046364332408 -0.774497178047780 0.157942669053071 68
1.013589891080743 -0.763794767567144 0.111036416260517 67
1.024311955833697 -0.771313984121437 0.067199367815940 70
1.019305582147526 -0.767265410265063 0.022269270613974 81
1.021156012109873 -0.771454058532266 -0.022339080239723 85
1.021640177791922 -0.771539790874659 -0.067094695903454 92
0.997152860386094 -0.752500596206876 -0.109293301405563 76
0.988877426268083 -0.745984700410335 -0.152092940569624 78
0.970100048328059 -0.731288313858062 -0.192414391999484 53
1.000681596316779 -0.761763222459184 0.336982396723482 68
1.011248837640799 -0.769250074349073 0.293336174864400 61
1.000295545116980 -0.760366908854032 0.244235514081977 70
1.012896769405679 -0.769666736459302 0.201487590971817 88
1.014986536605000 -0.770695962075984 0.156480236932209 75
1.018852563469990 -0.773351187582768 0.111907973687993 70
1.021613327124478 -0.774884800990956 0.067199367815940 70
1.013568312133757 -0.768225527153427 0.022199460988225 81
1.021639591532042 -0.777435776556006 -0.022408889865472 85
1.012716753445490 -0.770087713974326 -0.066676008253510 92
0.997692380935492 -0.758388133769428 -0.109641924376554 76
0.984817448302191 -0.748059097536494 -0.151849201882814 77
0.969243121576206 -0.735695571667928 -0.192727260929564 54
1.004148655481165 -0.769953619000915 0.339052949084302 68
1.002235961076068 -0.768209287082850 0.291536566429649 63
1.009970716566169 -0.773578418917464 0.247288458008002 76
1.007066680829533 -0.770796481782019 0.200861853111656 91
1.012154977226466 -0.774410897085863 0.156480236932209 72
1.014564073587983 -0.775692806022704 0.111733662202498 67
1.006205649128437 -0.768745912256658 0.066361992516053 68
1.015513485825331 -0.775576484858465 0.022304175426848 75
1.018919610060355 -0.780997227837239 -0.022408889865472 81
1.009887438653388 -0.773794333898534 -0.066676008253510 86
0.998202910141531 -0.764288577488350 -0.109990547347545 76
0.975893973369443 -0.746667204511136 -0.150874247135573 73
0.966540152291067 -0.739243083771331 -0.192727260929564 56
0.998397020622428 -0.771092369315698 0.338017672903892 66
1.005853859216698 -0.776291119628968 0.293336174864400 63
1.004290626019740 -0.774525437538152 0.246525222026496 70
1.001241085213412 -0.771894932895442 0.200236115251496 91
1.012726486288684 -0.780186003870217 0.156967714305830 68
1.011850219325331 -0.779229569755985 0.111733662202498 65
1.009847426802204 -0.777125804061051 0.066780680165996 73
1.014521187236588 -0.780158782647551 0.022339080239723 77
1.006690136614258 -0.777216927746301 -0.022199460988225 81
1.010478578726416 -0.779578983562525 -0.066885352078482 88
0.997106664161135 -0.768985048075546 -0.110164858833040 78
0.973281672955269 -0.750069161238260 -0.150874247135573 73
0.970343701464090 -0.747265247925181 -0.193978736649886 54
0.989600093217393 -0.769828024758093 0.335947120543072 68
0.999925161099616 -0.777579990304987 0.292436370647024 65
1.009196225840687 -0.784224373025624 0.248433311980261 73
0.990739470973529 -0.769327516875172 0.198671770601093 95
1.016132582698492 -0.788761489723531 0.157942669053071 72
1.002826850115083 -0.777872240764691 0.111036416260517 67
1.007128599178347 -0.780646094894240 0.066780680165996 68
1.017977791437592 -0.788771148184963 0.022478699491221 77
1.010285293227345 -0.785636424679114 -0.022339080239723 85
1.013921937683235 -0.788180480931181 -0.067304039728426 92
0.981828782209896 -0.762682928678750 -0.108770366949077 81
0.975229674808191 -0.757283873394010 -0.151605463196003 78
0.969158962254551 -0.752027710847706 -0.194291605579967 53
0.989948178399104 -0.775660665744238 0.336982396723482 68
1.003478598786862 -0.785697072917129 0.294235979081775 65
0.998858988478760 -0.781517777174631 0.246525222026496 76
0.995827886225215 -0.778866046997306 0.200236115251496 91
1.013511368298932 -0.792126769918312 0.157942669053071 68
1.000105459712647 -0.781368020664384 0.111036416260517 67
1.010694663019810 -0.789073217837490 0.067199367815940 68
1.005896691371316 -0.784762337191689 0.022269270613974 77
1.007536755325951 -0.789158192101747 -0.022339080239723 81
1.008157086201154 -0.789076416656855 -0.067094695903454 88
0.983868042926339 -0.769788703720813 -0.109293301405563 76
0.975840763599183 -0.762959069365486 -0.152092940569624 78
0.958876729396367 -0.749156606269153 -0.192727260929564 54
0.988887250104519 -0.780135714527596 0.337500034813687 75
1.003790226709364 -0.791608520784839 0.295135783299151 65
0.988414951930208 -0.778923835491838 0.244617132072730 73
1.002551219169035 -0.789496836758158 0.202113328831978 88
1.004501018449833 -0.790748278909826 0.156967714305830 72
1.000640746984280 -0.787143867733300 0.111385039231507 67
1.004932032191502 -0.789951863951942 0.066990023990968 75
1.004723568694712 -0.789504321880438 0.022304175426848 75
1.006484451227732 -0.793733238707865 -0.022373985052597 78
0.995985665276817 -0.785171788262187 -0.066466664428539 88
0.986005184738289 -0.776745885093898 -0.109816235862049 78
0.973171594288070 -0.766360741100234 -0.152092940569624 80
0.956255843023297 -0.752499146563231 -0.192727260929564 54
0.989183068302711 -0.785986450642353 0.338535310994097 71
0.992002691158656 -0.787662129251356 0.292436370647024 66
0.988902414524540 -0.784637807858570 0.245380368054237 71
0.996693930268572 -0.790536501402788 0.201487590971817 88
1.000317575723925 -0.792841940845701 0.156723975619020 68
1.005695198416824 -0.796818438785076 0.112256596658984 74
0.999036686762271 -0.790975372094246 0.066780680165996 68
1.003668185245027 -0.794072502622398 0.022339080239723 77
1.005273519931275 -0.798485436172747 -0.022408889865472 81
0.993376465530865 -0.788470278608617 -0.066466664428539 88
0.981727054203204 -0.778944567645545 -0.109641924376554 76
0.964402945176941 -0.764650451968106 -0.151117985822383 80
0.955303512018950 -0.756892798345995 -0.193040129859645 53
0.987941745152537 -0.790641641897388 0.339052949084302 68
0.983022276803511 -0.786423216696207 0.290636762212274 65
0.993687270982627 -0.794386572156858 0.247288458008002 76
0.983124801463808 -0.785380244128846 0.199297508461254 95
0.997404945804119 -0.796502962676003 0.156723975619020 72
0.999793035916910 -0.797838637042037 0.111907973687993 70
0.996269580986887 -0.794457842026107 0.066780680165996 68
1.002314696058236 -0.798992274592535 0.022373985052597 75
0.989988196518329 -0.791995990700055 -0.022129651362475 81
0.993599526924829 -0.794600711060677 -0.066676008253510 88
0.982114933327897 -0.784854341408983 -0.109990547347545 76
0.955390051954631 -0.763224029263818 -0.150143031075142 82
0.955610539278056 -0.762853871263061 -0.193665867719806 53
0.976151360103388 -0.786811320690751 0.335947120543072 68
0.986479642401675 -0.794568363484137 0.292436370647024 65
0.998694498204931 -0.803832308220527 0.249196547961768 73
0.986533538801166 -0.793760468758798 0.200548984181576 95
1.000946393909404 -0.804781562836213 0.157698930366261 72
0.986131230296315 -0.792586530954804 0.110687793289526 67
0.993490335981063 -0.797930631739879 0.066780680165996 70
0.998100099723074 -0.801060020489622 0.022339080239723 77
0.990331834296911 -0.797956165406313 -0.022199460988225 81
0.997181735801831 -0.802901542883603 -0.067094695903454 92
0.974713024619448 -0.784530025789416 -0.109467612891059 78
0.959041219515309 -0.771364565968373 -0.151117985822383 80
0.949996166303323 -0.763543575883368 -0.193040129859645 53
0.970399240472028 -0.787778757391257 0.334911844362662 68
0.992639800337362 -0.805546458128020 0.295135783299151 65
0.988117236087343 -0.801304403009951 0.247288458008002 79
0.979152621465966 -0.793468235730968 0.199610377391335 91
1.001074975676301 -0.810943865801477 0.158186407739881 68
0.983358579151432 -0.796023942621057 0.110687793289526 67
0.993804625062341 -0.803905904873443 0.066990023990968 68
0.988937630405427 -0.799683404291931 0.022199460988225 77
0.993751360038655 -0.806448510393172 -0.022339080239723 85
0.994232256660236 -0.806551003717631 -0.067094695903454 88
0.968873124197971 -0.785418305901822 -0.109118989920068 81
0.956207585354880 -0.774874446649763 -0.151117985822383 80
0.937980322197555 -0.759561488366688 -0.191162916279162 53
0.973625807262976 -0.796052543322372 0.336982396723482 66
0.986944874104908 -0.806367784631700 0.294235979081775 65
0.977850765707750 -0.798368558360319 0.245380368054237 72
0.982498420599735 -0.801877403025910 0.200861853111656 88
0.986073593938700 -0.804221999172388 0.156236498245399 72
0.988295000786233 -0.805746549907935 0.111559350717002 74
0.990992415179922 -0.807370032724496 0.066990023990968 68
0.986280347159055 -0.802958442722689 0.022199460988225 81
0.992478603686083 -0.811177925006709 -0.022373985052597 78
0.985364637476453 -0.804789936029443 -0.066676008253510 88
0.966125599970302 -0.788795519206878 -0.109118989920068 78
0.959785220902401 -0.783060704649527 -0.152092940569624 80
0.940049443657185 -0.766412453130970 -0.192101523069404 54
0.978297670789352 -0.805586422213091 0.339570587174507 75
0.968937151370692 -0.797594691472750 0.289736957994898 66
0.976434232852293 -0.803194394358785 0.245761986044990 73
0.982745364629407 -0.807810806429196 0.201487590971817 88
0.986186804763357 -0.810351270485096 0.156723975619020 75
0.988556013168325 -0.811720157599770 0.111907973687993 74
0.978904054145466 -0.803222844998118 0.066361992516053 68
0.986422967700107 -0.809104324781443 0.022269270613974 77
0.991184919538700 -0.815908265023746 -0.022408889865472 81
0.979323831891252 -0.805857937113968 -0.066466664428539 94
0.969521999039082 -0.797224866471408 -0.109816235862049 78
0.947707667933647 -0.779010029501698 -0.150630508448762 80
0.938760527343592 -0.771106590591113 -0.192414391999484 53
0.969531642394520 -0.804063505512185 0.337500034813687 71
0.969287795522864 -0.803290384544215 0.290636762212274 66
0.982837723710078 -0.813941254613211 0.248051693989508 73
0.970789905838798 -0.803678204233004 0.199610377391335 91
0.980435080907217 -0.811086437281794 0.156236498245399 68
0.988787326524705 -0.817705374453825 0.112256596658984 70
0.973015157475600 -0.804090374518865 0.066152648691081 70
0.989902071534917 -0.817464207427993 0.022408889865472 77
0.979094092836110 -0.811705575504608 -0.022199460988225 81
0.982798227597310 -0.814197760687736 -0.066885352078482 88
0.966733258270884 -0.800604272842739 -0.109816235862049 81
0.945119166764896 -0.782148458119107 -0.150630508448762 82
0.942287378647997 -0.779250940147666 -0.193665867719806 53
0.959305540766647 -0.801250857072871 0.334911844362662 68
0.973816467716509 -0.813082479478810 0.292886272755712 69
0.981355336622601 -0.818795818736796 0.248433311980261 76
0.964944215222348 -0.804532022196491 0.198984639531174 91
0.983555282757038 -0.819758235584533 0.157211452992640 68
0.973679437971100 -0.810951259815986 0.110862104775021 74
0.979413212896931 -0.815147900174856 0.066780680165996 73
0.988436492727386 -0.822365840684802 0.022443794678347 75
0.979324730123973 -0.817681571612036 -0.022269270613974 85
0.979807442358978 -0.817794427454294 -0.066885352078482 92
0.957812530301664 -0.798869327760147 -0.109118989920068 81
0.945432984975757 -0.787984660561876 -0.151117985822383 82
0.933354354585347 -0.777641530866272 -0.192414391999484 53
0.962416272953544 -0.809568886415917 0.336982396723482 68
0.975590018246838 -0.820069085450076 0.294235979081775 65
0.975628157748671 -0.819520122548987 0.247670075998755 79
0.968181127657965 -0.812976507776172 0.200236115251496 91
0.980831458565110 -0.823015315129057 0.157211452992640 72
0.970842757820008 -0.814345094731524 0.110862104775021 70
0.982684493625207 -0.823693772559748 0.067199367815940 70
0.974973157922979 -0.816650797624987 0.022199460988225 77
0.979525539719055 -0.823669037011916 -0.022339080239723 85
0.980148336132524 -0.823608851918353 -0.067094695903454 92
0.956543708682557 -0.803489332628437 -0.109293301405563 82
0.948758430112324 -0.796385069372651 -0.152092940569624 82
0.924716678763332 -0.775654435593944 -0.191162916279162 53
0.962674822152270 -0.815252868500769 0.338017672903892 68
0.975696182788996 -0.825987789442059 0.295135783299151 66
0.960770657372577 -0.812776846759538 0.244617132072730 67
0.965479877018196 -0.816182642073401 0.200236115251496 91
0.968855389723386 -0.818746283229077 0.155749020871778 75
0.971181409978454 -0.820130991333984 0.111210727746012 74
0.979947623510263 -0.826947942824532 0.067199367815940 73
0.972116574790382 -0.820049113742371 0.022199460988225 81
0.982893698805389 -0.832080936518704 -0.022478699491221 81
0.965070647889542 -0.816703503144498 -0.066257320603567 92
0.952352652519938 -0.805370393841903 -0.109118989920068 78
0.942940783348229 -0.797128887086494 -0.151605463196003 82
0.922003505819547 -0.778877573625092 -0.191162916279162 53
0.961293060693901 -0.819861875361870 0.338535310994097 71
0.961086478694963 -0.819106348958502 0.291536566429649 65
0.962554057048603 -0.819777246253210 0.245761986044990 71
0.968641392051566 -0.824669997204202 0.201487590971817 91
0.972182795551846 -0.827099877583818 0.156723975619020 75
0.971348164818446 -0.826097605595996 0.111559350717002 70
0.964879925313635 -0.820016350858966 0.066361992516053 70
0.975488652986789 -0.828446047361000 0.022339080239723 77
0.976939780075825 -0.832912064842619 -0.022408889865472 81
0.965397677797462 -0.822489821349184 -0.066466664428539 88
0.955602903176802 -0.813857165466496 -0.109816235862049 81
0.934245328760670 -0.795105097212523 -0.150630508448762 78
0.922425128870995 -0.784490276402936 -0.191788654139323 53
0.956959869962256 -0.821953684879178 0.338017672903892 66
0.959556363613041 -0.823892885780808 0.291986468538337 69
0.966992825635505 -0.829691755186366 0.247670075998755 76
0.952260253249335 -0.816474088779147 0.198671770601093 95
0.969144792992928 -0.830657550185913 0.156723975619020 72
0.971485061470238 -0.832075345605923 0.111907973687993 70
0.962011655699306 -0.823379414515556 0.066361992516053 73
0.969406801469608 -0.829415778033422 0.022269270613974 77
0.961889021642461 -0.825895749216743 -0.022129651362475 81
0.965407724970372 -0.828624302377687 -0.066676008253510 88
0.952756189650473 -0.817187883796500 -0.109816235862049 81
0.931324847752621 -0.798523936950562 -0.150630508448762 78
0.922543774877415 -0.790436389082890 -0.192414391999484 53
0.946779488752122 -0.818969878554561 0.335429482452867 71
0.953870365742091 -0.824521606274539 0.291086664320961 69
0.961264699840023 -0.830327157928830 0.246906840017249 74
0.953889800558244 -0.823666161517299 0.199610377391335 91
0.972396630294678 -0.839054134578271 0.157698930366261 72
0.962539924797251 -0.830256025094372 0.111210727746012 74
0.968208620089888 -0.834556411915530 0.066990023990968 70
0.969681283516975 -0.835235998919416 0.022339080239723 77
0.959000247319543 -0.829248336851893 -0.022129651362475 81
0.965677063043994 -0.834432837074419 -0.066885352078482 88
0.940851220737402 -0.812694276902886 -0.108770366949077 78
0.931677136330337 -0.804202131307974 -0.151117985822383 80
0.919917520894456 -0.793491308397810 -0.192414391999484 53
0.945371641205152 -0.823538701096613 0.335947120543072 68
0.961129252175756 -0.836970578470869 0.294235979081775 66
0.958214942042065 -0.833844792032677 0.246906840017249 79
0.955480686167179 -0.830879511906049 0.200548984181576 95
0.966318475399465 -0.840007835171551 0.157211452992640 72
0.950611137030043 -0.825771257693525 0.110164858833040 74
0.965289575911307 -0.837931006302224 0.066990023990968 73
0.957551476034328 -0.830920844169320 0.022129651362475 77
0.960623919369650 -0.836530524555031 -0.022234365801099 78
0.962612227542723 -0.837966615720802 -0.066885352078482 88
0.938008656321981 -0.815973509336421 -0.108770366949077 78
0.931719211986161 -0.810216695424756 -0.151605463196003 80
0.908056679726379 -0.789083424008153 -0.190537178419001 53
0.945395636424462 -0.829381670238790 0.336982396723482 66
0.958348473103852 -0.840153195978748 0.294235979081775 65
0.949537623025775 -0.831843000470719 0.245380368054237 74
0.951088478559999 -0.832908280724485 0.200236115251496 91
0.954564548485654 -0.835363852026087 0.155749020871778 75
0.953721111959536 -0.834331849043005 0.110862104775021 74
0.965366141140070 -0.843924438860179 0.067199367815940 73
0.957802736567236 -0.836722834489502 0.022199460988225 77
0.965215283446930 -0.846471085303840 -0.022408889865472 85
0.947811509640861 -0.830623264155156 -0.066047976778595 86
0.935154662567101 -0.819242799390250 -0.108770366949077 81
0.929027313693937 -0.813301932826765 -0.151605463196003 80
0.909895262888768 -0.795992232531879 -0.191475785209243 54
0.945390323772167 -0.835234810411177 0.338017672903892 66
0.946644723651748 -0.835754866941687 0.291536566429649 65
0.946482388155671 -0.835317642507750 0.245380368054237 79
0.948175291734653 -0.836223124705897 0.200236115251496 91
0.954474454706474 -0.841482425204944 0.156236498245399 75
0.956782832618386 -0.842924149893891 0.111559350717002 74
0.950421710787100 -0.836730935016641 0.066361992516053 70
0.960734149128238 -0.845512188080624 0.022339080239723 77
0.962254667533256 -0.849835158407477 -0.022408889865472 85
0.947901267689332 -0.836569874056790 -0.066257320603567 86
0.941253594192465 -0.830410781337079 -0.109816235862049 81
0.923204620776933 -0.813914358232551 -0.151117985822383 80
0.912899613490031 -0.804546144471739 -0.192727260929564 56
0.942615387252545 -0.838365245295493 0.338017672903892 68
0.940954882654094 -0.836300293710451 0.290636762212274 66
0.949577822091592 -0.843667572059330 0.246906840017249 74
0.940965513803397 -0.835428276367184 0.199297508461254 98
0.957617463352990 -0.849913732639571 0.157211452992640 72
0.956963529486182 -0.848736359924799 0.111907973687993 74
0.947641785275224 -0.839878046355354 0.066361992516053 77
0.957925047230547 -0.848693448414914 0.022339080239723 77
0.950464574856427 -0.845049274228920 -0.022199460988225 81
0.948108057242522 -0.842361736020550 -0.066466664428539 92
0.941474025657331 -0.836173643982442 -0.110164858833040 81
0.917531150933563 -0.814335948482565 -0.150630508448762 80
0.916137185385300 -0.812812959592805 -0.193978736649886 54
0.930903494632584 -0.834079576651079 0.334911844362662 66
0.948046191516154 -0.848842835705456 0.293786076973088 69
0.955256489594648 -0.854998315537082 0.249196547961768 76
0.939369561901913 -0.840188385667105 0.199610377391335 91
0.958935457675545 -0.857387252823941 0.157942669053071 79
0.941960391935125 -0.841618316319800 0.110513481804031 74
0.950516464095797 -0.848666478800354 0.066780680165996 73
0.954807996044631 -0.852198718717225 0.022339080239723 77
0.942892246713436 -0.844524738099837 -0.022094746549601 78
0.950818554955310 -0.851325099612383 -0.066885352078482 88
0.929494083368930 -0.831647638739494 -0.109118989920068 72
0.921939490944235 -0.824309040909437 -0.151849201882814 77
0.911679097763058 -0.814848915064794 -0.193665867719806 53
0.936739570378301 -0.844925458305118 0.338017672903892 66
0.943778601363345 -0.850677283183565 0.293336174864400 65
0.939289247595230 -0.846333714067453 0.245761986044990 73
0.938046222797972 -0.844620612745607 0.199923246321415 95
0.954611543653445 -0.859234454665852 0.157698930366261 72
0.939164305806003 -0.844737342041583 0.110513481804031 74
0.947696958373438 -0.851813838726691 0.066780680165996 75
0.943051971333212 -0.847341287731879 0.022129651362475 81
0.950482418875165 -0.857020499698379 -0.022339080239723 81
0.950957336842805 -0.857147854973961 -0.067094695903454 88
0.926731129742167 -0.834725379514503 -0.109118989920068 66
0.922151800283467 -0.830017827150166 -0.152336679256434 54
0.903098139626084 -0.812582581621940 -0.192414391999484 48
0.933784523193486 -0.848190142037121 0.338017672903892 68
0.945132283833655 -0.857895796400927 0.294685881190463 69
0.936329269146938 -0.849607289254266 0.245761986044990 73
0.942409072386284 -0.854524365345072 0.201487590971817 91
0.944252448833526 -0.855895582604285 0.156480236932209 79
0.942116587566554 -0.853360714742689 0.111210727746012 77
0.947679297301665 -0.857797345619296 0.066990023990968 77
0.943054031588369 -0.853311360194364 0.022199460988225 81
0.950445959229578 -0.863021622115672 -0.022408889865472 85
0.936276821025232 -0.849559698830707 -0.066257320603567 88
0.929714698921002 -0.843309535669627 -0.109816235862049 67
0.920719677523034 -0.834564851573649 -0.152580417943245 63
0.891473207835330 -0.807771690115414 -0.190537178419001 61
0.928115336259080 -0.848674723848421 0.336982396723482 68
0.929334813157472 -0.849194369684781 0.290636762212274 66
0.936405810788186 -0.855355757814787 0.246525222026496 73
0.935193306041845 -0.853649568194269 0.200548984181576 95
0.937009897480840 -0.855008008453972 0.155749020871778 75
0.939281561382216 -0.856480193864160 0.111210727746012 70
0.938924343582658 -0.855554401663415 0.066571336341025 73
0.943175827952695 -0.859127136780157 0.022269270613974 77
0.944626891488289 -0.863470324545792 -0.022339080239723 85
0.936403734674238 -0.855353861397658 -0.066466664428539 86
0.932798234198262 -0.851761835618475 -0.110513481804031 66
0.910615252481380 -0.830923275821466 -0.151361724509193 66
0.899005611618382 -0.820042141095961 -0.192727260929564 68
0.930532466458888 -0.857468615509149 0.339052949084302 66
0.930367920186419 -0.856716659858152 0.291986468538337 69
0.940336834704972 -0.865593164711663 0.248433311980261 79
0.929000969797183 -0.854559473469342 0.199923246321415 95
0.939564885736832 -0.863974201557259 0.156723975619020 75
0.938920122855309 -0.862776630516249 0.111559350717002 74
0.932690097029546 -0.856451556629045 0.066361992516053 75
0.939870071828168 -0.862742329822779 0.022269270613974 81
0.935421295263649 -0.861671738134139 -0.022199460988225 81
0.933112516773552 -0.858943079348260 -0.066466664428539 86
0.938317562378635 -0.863431910111861 -0.111559350717002 61
0.941026106398942 -0.865317862834953 -0.156967714305830 86
0.914756187080494 -0.840866826866786 -0.196794557020610 54
0.919186014059714 -0.852666760086163 0.335947120543072 66
0.931809295970956 -0.863771569605086 0.293336174864400 66
0.931701123447249 -0.863368999281206 0.246906840017249 72
0.923263254770509 -0.854951148026425 0.199297508461254 95
0.939608191764931 -0.869782159518220 0.157211452992640 72
0.927278384726074 -0.857767781838041 0.110513481804031 77
0.932778137658029 -0.862251241277732 0.066571336341025 75
0.942878580338523 -0.871282861299251 0.022408889865472 77
0.932558745545558 -0.864768969169412 -0.022199460988225 85
0.936118927699440 -0.867462796251336 -0.066885352078482 88
0.938372438419625 -0.869246669386461 -0.111907973687993 100
0.939608191764931 -0.869782159518220 -0.157211452992640 100
0.939510106800769 -0.869386927700209 -0.202739066692139 77
0.916353415192021 -0.855710202501256 0.335947120543072 66
0.931789311418383 -0.869515881246711 0.294235979081775 65
0.927397366225018 -0.865114697611644 0.246525222026496 73
0.924757860653178 -0.862048952965635 0.200236115251496 88
0.939623278081983 -0.875599875883846 0.157698930366261 72
0.927345005027166 -0.863553608860515 0.110862104775021 74
0.935762194486783 -0.870782092176320 0.066990023990968 73
0.931199219685870 -0.866232761553302 0.022199460988225 77
0.932609481472774 -0.870585799708107 -0.022269270613974 81
0.933237170304776 -0.870562308877930 -0.066885352078482 88
0.934027611737937 -0.870994838814757 -0.111733662202498 100
0.939623278081983 -0.875599875883846 -0.157698930366261 100
0.930840333134440 -0.867111887183274 -0.201487590971817 83
0.916325872729728 -0.861390596224848 0.336982396723482 66
0.928900769554227 -0.872601025059765 0.294235979081775 66
0.918798839995689 -0.862809541028556 0.244998750063484 73
0.921894118676811 -0.865110820703392 0.200236115251496 91
0.928027829935049 -0.870562176689327 0.156236498245399 75
0.930290575302687 -0.872074513313281 0.111559350717002 77
0.935784648846210 -0.876611279843531 0.067199367815940 75
0.931240818498206 -0.872049664611548 0.022269270613974 81
0.932631861689350 -0.876412446315033 -0.022339080239723 81
0.924521393590707 -0.868183376547168 -0.066466664428539 88
0.934039407934885 -0.876814658736348 -0.112082285173488 100
0.939610080542663 -0.881427227256432 -0.158186407739881 100
0.927959768419683 -0.870193897288910 -0.201487590971817 83
0.917219050333281 -0.868888403027595 0.338535310994097 63
0.918467363025804 -0.869462825684306 0.291986468538337 69
0.918331084077705 -0.869029957039393 0.245761986044990 73
0.922871319781459 -0.872716023879623 0.201174722041737 95
0.927563389816570 -0.876846482195237 0.156723975619020 75
0.926935199929957 -0.875640135214468 0.111559350717002 77
0.920792974290203 -0.869229765048977 0.066361992516053 75
0.927885531532468 -0.875618935358887 0.022269270613974 77
0.932163749545690 -0.882736985567002 -0.022408889865472 85
0.921028842531627 -0.871887638256556 -0.066466664428539 88
0.930665804119663 -0.880394640143038 -0.112082285173488 100
0.924678278184170 -0.874119121441908 -0.156236498245399 100
0.927483095951793 -0.876464094548164 -0.202113328831978 86
0.915730731559712 -0.873258452575383 0.339052949084302 64
0.914168316773559 -0.871159410809416 0.291536566429649 73
0.925394708328910 -0.881549501330112 0.248433311980261 76
0.911387715223621 -0.867599524931062 0.199297508461254 95
0.924650562039206 -0.879917572041126 0.156723975619020 75
0.924026375997342 -0.878709148540528 0.111559350717002 77
0.917905441683144 -0.872278445267204 0.066361992516053 77
0.930776000090757 -0.884200135325735 0.022408889865472 77
0.920546957600502 -0.877544575952864 -0.022199460988225 81
0.923916006580793 -0.880448500743307 -0.066885352078482 88
0.930626857843894 -0.886223979789200 -0.112430908144479 100
0.921774510524309 -0.877180658908805 -0.156236498245399 100
0.927433987236937 -0.882257938561392 -0.202739066692139 83
0.907103312300247 -0.871097265012592 0.336982396723482 64
0.919404117787872 -0.882601414460964 0.294235979081775 65
0.925145411960214 -0.887492561778917 0.249196547961768 79
0.911205649090795 -0.873509565285538 0.199923246321415 95
0.927306404000047 -0.888633715577930 0.157698930366261 72
0.912319540312218 -0.873661162410264 0.110513481804031 77
0.914855029499636 -0.875477218977467 0.066361992516053 70
0.924793914049723 -0.884679140723142 0.022339080239723 77
0.917478147097445 -0.880752538191331 -0.022199460988225 85
0.923719158020945 -0.886433990146305 -0.067094695903454 88
0.921775579457149 -0.883950999686778 -0.111733662202498 100
0.924285293126421 -0.886048111536924 -0.157211452992640 100
0.927201610100958 -0.888222905860684 -0.203364804552300 83
0.904057089015535 -0.874258339450791 0.336982396723482 66
0.916472250829841 -0.885645415543193 0.294235979081775 66
0.910899317771224 -0.879645246151092 0.246143604035743 76
0.909572186855844 -0.878056908774863 0.200236115251496 91
0.924354489761195 -0.891703888417931 0.157698930366261 72
0.909264335576380 -0.876840429262015 0.110513481804031 70
0.923298750476068 -0.889752584899010 0.067199367815940 75
0.918974330194849 -0.884966812953598 0.022269270613974 81
0.920149089220331 -0.889509201245855 -0.022339080239723 85
0.920774558058389 -0.889492279344796 -0.067094695903454 92
0.920117603867281 -0.888547241557015 -0.111907973687993 100
0.921341969670643 -0.889108280228770 -0.157211452992640 100
0.915719510497959 -0.883065415910822 -0.201487590971817 83
0.902383874427779 -0.878756547442733 0.337500034813687 71
0.916012764186395 -0.891717155416445 0.295135783299151 65
0.902040182540959 -0.877502118389457 0.244617132072730 74
0.913583699017990 -0.888111141283561 0.201800459901898 95
0.906843855640602 -0.881251425302368 0.155261543498158 75
0.911915389607438 -0.885561119421646 0.111210727746012 81
0.917320682172653 -0.890188240061611 0.066990023990968 75
0.912853982099613 -0.885544347447779 0.022199460988225 81
0.917038516805012 -0.892715701771906 -0.022339080239723 85
0.914645481054683 -0.890075274155835 -0.066885352078482 92
0.915582024417037 -0.890364613680945 -0.111733662202498 100
0.920923786943254 -0.895246572740400 -0.157698930366261 100
0.912476763239861 -0.886415764318122 -0.201487590971817 83
0.903448877801902 -0.885958928458719 0.339052949084302 64
0.899132231394486 -0.881110380666542 0.290636762212274 66
0.904736087364147 -0.885983035059537 0.246143604035743 72
0.911889640612178 -0.892676585137445 0.202113328831978 91
0.912430661951750 -0.892582703505093 0.156723975619020 75
0.917365532575916 -0.897096949135515 0.112256596658984 81
0.908493958221772 -0.887801208070989 0.066571336341025 75
0.909912392038983 -0.888566611316073 0.022199460988225 81
0.919628750380795 -0.901510770619098 -0.022478699491221 85
0.903128397307122 -0.884717506011894 -0.066257320603567 88
0.918162525042265 -0.899131174246461 -0.112430908144479 100
0.909437305091003 -0.889965136803026 -0.156236498245399 100
0.912356919957945 -0.892198998493782 -0.202113328831978 83
0.906005237720139 -0.894378703897568 0.341123501445122 64
0.900212332414897 -0.888349964123736 0.291986468538337 69
0.910025246931909 -0.897406785936587 0.248433311980261 79
0.899075378446367 -0.885989931913354 0.199923246321415 95
0.909309408034721 -0.895762242967247 0.156723975619020 75
0.911545901044669 -0.897338662776608 0.111907973687993 77
0.902697282617294 -0.888007715002889 0.066361992516053 75
0.912508349425911 -0.897345796068630 0.022339080239723 77
0.905247416546391 -0.893318699439297 -0.022199460988225 85
0.908565788893446 -0.896280400839920 -0.066885352078482 88
0.915175850252160 -0.902170967172544 -0.112430908144479 100
0.906481073950632 -0.892976046255063 -0.156236498245399 100
0.916274443996552 -0.902308455354163 -0.203677673482381 83
0.891917174026146 -0.886640072958419 0.336982396723482 64
0.901409095967055 -0.895450462183017 0.293336174864400 66
0.901471098078620 -0.894887072027316 0.246906840017249 72
0.893172908417301 -0.886340035646882 0.199297508461254 95
0.913381651630015 -0.905761597639257 0.157942669053071 75
0.899918256251645 -0.892099056041340 0.110862104775021 81
0.899592057689432 -0.891153306503091 0.066361992516053 77
0.912369900083811 -0.903180495292084 0.022408889865472 81
0.904960504070823 -0.899292258199860 -0.022269270613974 85
0.911257406730763 -0.904917733782778 -0.067304039728426 88
0.909193137889250 -0.902552712790444 -0.112082285173488 100
0.906177074469515 -0.898930867849158 -0.156723975619020 100
0.916083010604572 -0.908123358247911 -0.204303411342542 83
0.888506153935189 -0.890058244564813 0.336982396723482 66
0.901938289389399 -0.903198512820037 0.294685881190463 69
0.895096045907244 -0.895721159063195 0.246143604035743 79
0.893953437867149 -0.893953437867149 0.200236115251496 91
0.906930507693591 -0.906613984465182 0.157455191679451 75
0.896486216240063 -0.895547909280362 0.110862104775021 70
0.907471710185004 -0.905889253815853 0.067199367815940 79
0.903075047346844 -0.901185629293886 0.022269270613974 81
0.904326828382187 -0.905590389172863 -0.022339080239723 85
0.904794430231128 -0.905742425198439 -0.067094695903454 88
0.902903718156401 -0.903218946031451 -0.111733662202498 100
0.908175932119250 -0.908175932119250 -0.157698930366261 100
0.904046460177726 -0.903415536893029 -0.202426197762059 83
0.888113961798381 -0.895898232872139 0.338017672903892 68
0.900310640782176 -0.907567969636866 0.295135783299151 66
0.892120805962317 -0.898684479537419 0.246143604035743 78
0.895003265725245 -0.901273479889749 0.201174722041737 95
0.898322058596102 -0.903984189291661 0.156480236932209 75
0.896164000499934 -0.901497786043957 0.111210727746012 81
0.904304037950931 -0.909051402237947 0.067199367815940 77
0.897260070146734 -0.901340973467927 0.022199460988225 81
0.906792469905975 -0.914421196490438 -0.022478699491221 81
0.896158536101642 -0.903067100549865 -0.066676008253510 88
0.902552712790444 -0.909193137889250 -0.112082285173488 100
0.905159318740858 -0.911182558578643 -0.157698930366261 100
0.901045655544014 -0.906408495704257 -0.202426197762059 83
0.887691791958155 -0.901746294812103 0.339052949084302 68
0.891508811462212 -0.905307642517811 0.293336174864400 66
0.886064936465190 -0.899151490762545 0.245380368054237 78
0.891851781510990 -0.904392133439419 0.201174722041737 95
0.899185012930175 -0.911510214736897 0.157211452992640 79
0.898610545839740 -0.910292091765414 0.111907973687993 77
0.889896370770216 -0.900835465131839 0.066361992516053 75
0.902383958549894 -0.913157726248221 0.022408889865472 77
0.906401215485874 -0.920430552134343 -0.022548509116970 89
0.887236063387823 -0.900654281781037 -0.066257320603567 86
0.904968396528118 -0.918013604826585 -0.112779531115470 100
0.896238233449030 -0.908840263396341 -0.156723975619020 100
0.900492465484885 -0.912516975757177 -0.203051935622220 83
0.887239583388208 -0.907602292144207 0.340088225264712 68
0.887139068492283 -0.906865979285755 0.292886272755712 69
0.891318604417503 -0.910502432107683 0.247670075998755 84
0.885925233069162 -0.904677061914963 0.200548984181576 95
0.894768000801704 -0.913069198586243 0.156967714305830 72
0.895427558818393 -0.913423282128051 0.111907973687993 81
0.889543754028353 -0.906787829013444 0.066571336341025 75
0.899350856793077 -0.916145118439516 0.022408889865472 77
0.889201633412017 -0.909291833829620 -0.022199460988225 89
0.889832150854799 -0.909301409450409 -0.066676008253510 88
0.901758417662075 -0.921166941187625 -0.112779531115470 100
0.895997770366304 -0.914643402942674 -0.157211452992640 100
0.900227173814487 -0.918319356678703 -0.203677673482381 80
0.877495725683646 -0.903609970013441 0.337500034813687 75
0.885325972644712 -0.911354931229659 0.293336174864400 66
0.885397994075248 -0.910792734073029 0.246906840017249 78
0.880165523036036 -0.904778065405549 0.199923246321415 95
0.898497512092878 -0.923300211832133 0.158186407739881 79
0.884053487455049 -0.907823234469915 0.110862104775021 81
0.889319682206155 -0.912593471156413 0.066780680165996 77
0.896147434385660 -0.919278857310989 0.022408889865472 77
0.888968157934748 -0.915104198309909 -0.022269270613974 89
0.892220353151839 -0.918131332219542 -0.067094695903454 88
0.890364613680945 -0.915582024417037 -0.111733662202498 100
0.891415424909955 -0.916342554342102 -0.156967714305830 100
0.897016156560460 -0.921456141221223 -0.203677673482381 80
0.870313172969226 -0.902495713649133 0.335947120543072 66
0.887711819912896 -0.919894882148678 0.295135783299151 65
0.882372828309700 -0.913723811779816 0.246906840017249 80
0.879746815794069 -0.910686359315837 0.200548984181576 95
0.891291672596294 -0.921992959286397 0.157455191679451 75
0.883649267439994 -0.913768103069353 0.111210727746012 81
0.894462217394526 -0.924303741877409 0.067408711640912 79
0.887529619492253 -0.916499456688468 0.022269270613974 77
0.888545135821050 -0.921080076379244 -0.022339080239723 81
0.889170814206222 -0.921084993334202 -0.067094695903454 86
0.887163211585743 -0.918684398876834 -0.111733662202498 100
0.885612903488851 -0.916438607121987 -0.156480236932209 81
0.882969936709331 -0.913065617619539 -0.201174722041737 68
0.873997542454341 -0.912351981964144 0.338535310994097 71
0.884495379296476 -0.922987970354749 0.295135783299151 65
0.876460255058526 -0.913964303184232 0.246143604035743 72
0.879457516016929 -0.916449239583275 0.201174722041737 95
0.879819577970781 -0.916506284312668 0.155992759558589 75
0.880614244610388 -0.916693365430054 0.111210727746012 81
0.888623898923802 -0.924385098985590 0.067199367815940 77
0.884325032232549 -0.919591929582477 0.022269270613974 81
0.888252981940935 -0.926909101114038 -0.022408889865472 81
0.877657384755090 -0.915532466657846 -0.066466664428539 86
0.878594787681325 -0.915870139988868 -0.111036416260517 84
0.857668113947199 -0.893743332141358 -0.152092940569624 80
0.851044354800615 -0.886221532497757 -0.194604474510047 54
0.876133554872446 -0.920996004266480 0.340605863354917 71
0.876055205818122 -0.920270158635435 0.293336174864400 65
0.874778767832953 -0.918287222089825 0.246525222026496 71
0.880341426102287 -0.923803645693525 0.202113328831978 88
0.882255342912274 -0.925165199609425 0.156967714305830 72
0.882910019620673 -0.925528229001401 0.111907973687993 81
0.882633549127903 -0.924591993605597 0.066990023990968 79
0.884033297236551 -0.925411311186067 0.022339080239723 81
0.887769100730893 -0.932901244428715 -0.022478699491221 81
0.874616544030385 -0.918437849518458 -0.066466664428539 86
0.850656087172022 -0.892964763168741 -0.107898809521601 70
0.875245302891290 -0.918135013091330 -0.155749020871778 94
0.875370983046179 -0.917625281912676 -0.200861853111656 71
0.871747743681173 -0.922492206158449 0.340088225264712 68
0.875514941983103 -0.926154833155943 0.294235979081775 66
0.872917194288099 -0.922761390755427 0.246906840017249 56
0.866409078718721 -0.915241501217829 0.199610377391335 78
0.881750416146848 -0.931121939510635 0.157455191679451 75
0.882576925000093 -0.931343345906290 0.112256596658984 81
0.876814005323049 -0.924615347496417 0.066780680165996 77
0.889055100816688 -0.937196133393876 0.022548509116970 77
0.879175758972289 -0.930027392246886 -0.022339080239723 85
0.872777560950381 -0.922936393409250 -0.066571336341025 75
0.881926509660169 -0.931959273823258 -0.112256596658984 90
0.881587891282026 -0.931275819807482 -0.157455191679451 100
0.887106134919714 -0.936450116931813 -0.204303411342542 80
0.863234526762293 -0.919894670389017 0.338017672903892 68
0.869770879169775 -0.926211912180014 0.293336174864400 61
0.871196847229456 -0.927081696461256 0.247288458008002 59
0.856444050313671 -0.911063860329172 0.198046032740932 71
0.885458613764515 -0.941270227667492 0.158673885113502 79
0.873858934728937 -0.928614598992504 0.111559350717002 77
0.876319652514907 -0.930578424047023 0.066990023990968 77
0.881828074718922 -0.935773221842748 0.022443794678347 75
0.871818107543667 -0.928716760016961 -0.022234365801099 78
0.861507362724768 -0.917091350146947 -0.065943304866109 52
0.874574817829570 -0.930676354459053 -0.111733662202498 100
0.877134923000244 -0.932748029159697 -0.157211452992640 100
0.883995876814584 -0.939386717964766 -0.204303411342542 80
0.858701209613985 -0.921488990226275 0.337500034813687 75
0.865041511920694 -0.927968110381616 0.292886272755712 49
0.871810631803685 -0.934575364415614 0.248433311980261 76
0.862694345615182 -0.924155811642487 0.200236115251496 78
0.877938209714775 -0.940156696096564 0.157942669053071 75
0.870612141017093 -0.931659278481804 0.111559350717002 74
0.875794319997769 -0.936549280083425 0.067199367815940 77
0.871561948542793 -0.931697294961518 0.022269270613974 81
0.867207435952389 -0.930291592437939 -0.022199460988225 61
0.852691758675769 -0.914399961299812 -0.065524617216166 63
0.874039452599278 -0.936636854202440 -0.112082285173488 100
0.877938209714775 -0.940156696096564 -0.157942669053071 100
0.877849986983220 -0.939733369460916 -0.203677673482381 80
0.858103551145693 -0.927316633476010 0.338535310994097 75
0.863283557016981 -0.932261437956130 0.293336174864400 56
0.866037836991503 -0.934581188743840 0.247670075998755 79
0.870206473794137 -0.938751065940047 0.202739066692139 91
0.865365540845735 -0.932875467215632 0.156236498245399 64
0.870065222730968 -0.937613520390549 0.111907973687993 77
0.875237947561045 -0.942527771868841 0.067408711640912 75
0.871190005597990 -0.937512101063350 0.022339080239723 77
0.851729053082639 -0.920105783595198 -0.021885317672354 54
0.867299399465166 -0.936270314260096 -0.066885352078482 82
0.876181542324382 -0.945527726854925 -0.112779531115470 100
0.876000871931694 -0.944671124138588 -0.158186407739881 100
0.872041552967515 -0.939743284806056 -0.203051935622220 80
0.855843224800995 -0.932027613474768 0.339052949084302 66
0.862170882428000 -0.938589664393931 0.294235979081775 65
0.862279219956339 -0.938050148065795 0.247670075998755 80
0.866595522391446 -0.942085490498552 0.202739066692139 91
0.846827892575395 -0.920273474503205 0.153555372690486 53
0.869157888320534 -0.943878711316624 0.112256596658984 81
0.866198715620944 -0.940006447713161 0.066990023990968 77
0.867419581646669 -0.941001718845381 0.022339080239723 77
0.861717578951518 -0.938096182224060 -0.022234365801099 73
0.866236758496433 -0.942685620984650 -0.067094695903454 88
0.873893126933594 -0.950351636048416 -0.112953842600965 100
0.860106424540237 -0.935031121102344 -0.155992759558589 100
0.870937857977665 -0.946143040383473 -0.203677673482381 80
0.848679659445006 -0.930726899871852 0.337500034813687 50
0.860367204146543 -0.942883081540899 0.294685881190463 69
0.861811446677631 -0.943803962628854 0.248433311980261 74
0.853975960226996 -0.934895269160198 0.200548984181576 95
0.869218576585590 -0.950915415021164 0.158186407739881 64
0.864513341799822 -0.945436535786719 0.112082285173488 74
0.857519002332387 -0.937130416653220 0.066571336341025 75
0.864294338129023 -0.943873011888865 0.022339080239723 69
0.866523518309935 -0.949962772058047 -0.022443794678347 84
0.863105937461628 -0.945552982386554 -0.067094695903454 86
0.869226983667435 -0.951925011871097 -0.112779531115470 100
0.862357276826222 -0.943739934394251 -0.156967714305830 100
0.875793661508947 -0.957772755336737 -0.205554887062863 80
0.840400931422869 -0.927808890216610 0.335429482452867 54
0.858379191196767 -0.947324671660556 0.295135783299151 73
0.861149222350177 -0.949715271715489 0.249196547961768 78
0.854853276102066 -0.942110729703222 0.201487590971817 91
0.864559769594065 -0.952473893653705 0.157942669053071 75
0.846637626406463 -0.932075336778700 0.110164858833040 57
0.859780277687729 -0.945880653563070 0.066990023990968 73
0.844850696995766 -0.929130132775795 0.021920222485228 55
0.856654966876744 -0.945421782757160 -0.022269270613974 85
0.862482766835899 -0.951519649375318 -0.067304039728426 86
0.860711161008841 -0.948899287946356 -0.112082285173488 100
0.861725637142532 -0.949684573373962 -0.157455191679451 100
0.868461307584395 -0.956436686391839 -0.204616280272622 80
0.850076245879781 -0.945100006369268 0.340605863354917 82
0.856536738605889 -0.951614374628907 0.295585685407839 69
0.847483692483295 -0.940895699409438 0.246143604035743 76
0.848914893208541 -0.942153925881161 0.200861853111656 91
0.866713761035678 -0.961232773721876 0.158917623800312 72
0.844713378620670 -0.936504444982868 0.110339170318535 61
0.859149779032466 -0.951841321940587 0.067199367815940 75
0.843105335207658 -0.933410609608498 0.021955127298103 64
0.858699764251971 -0.954352427842360 -0.022408889865472 85
0.861995526092468 -0.957343019005069 -0.067513383553398 86
0.857393640619530 -0.951897949559446 -0.112082285173488 100
0.861229748055242 -0.955485967640078 -0.157942669053071 100
0.857346480801354 -0.950510327505354 -0.202739066692139 80
0.843076090103920 -0.943591969027039 0.339052949084302 68
0.854508411229285 -0.956051413921944 0.296035587516526 73
0.846811846822299 -0.946774898502334 0.246906840017249 72
0.855007895554901 -0.955267192977363 0.203051935622220 95
0.852759861966137 -0.952420996453301 0.156967714305830 75
0.854898642221827 -0.954139336196536 0.112082285173488 74
0.846655426143737 -0.944275792287990 0.066466664428539 55
0.854529208425841 -0.952722833483668 0.022339080239723 77
0.863525906376611 -0.966140476677023 -0.022618318742719 85
0.853323571671283 -0.954390477640985 -0.067094695903454 83
0.858217850839798 -0.959190379962187 -0.112605219629974 100
0.860537038977504 -0.961444690687429 -0.158430146426692 100
0.856659231892980 -0.956440127076408 -0.203364804552300 80
0.843623510954497 -0.950864352898487 0.340605863354917 71
0.852627151767977 -0.960337073380864 0.296485489625214 76
0.848883445766034 -0.955448473232808 0.248433311980261 79
0.851668181775126 -0.958245907683368 0.203051935622220 95
0.849596831363442 -0.955243613327408 0.156967714305830 75
0.860833379378916 -0.967537308966632 0.113302465571956 85
0.828744846249802 -0.930816789103111 0.065315273391194 53
0.854025683314413 -0.958537413925167 0.022408889865472 77
0.857493407507648 -0.966157658365095 -0.022548509116970 89
0.850154006934148 -0.957214953014962 -0.067094695903454 88
0.857511062106251 -0.965159161903924 -0.112953842600965 100
0.846792115294492 -0.952424825865390 -0.156480236932209 100
0.853482851932789 -0.959275652628627 -0.203364804552300 80
0.841576285821834 -0.955252904682391 0.341123501445122 68
0.842659264390338 -0.956145675486180 0.294235979081775 73
0.847973011095834 -0.961498233454957 0.249196547961768 80
0.844396743580913 -0.956769743323024 0.202113328831978 91
0.856600416478365 -0.970256108115148 0.158917623800312 75
0.854812489258525 -0.967550018164084 0.112953842600965 85
0.845334165317859 -0.956148784773425 0.066885352078482 72
0.855805839103759 -0.967652794390898 0.022548509116970 77
0.846182700945501 -0.960143636189201 -0.022339080239723 85
0.849281550669048 -0.963320826064407 -0.067304039728426 86
0.854136803660996 -0.968146554026535 -0.112953842600965 100
0.845922705209262 -0.958498781155744 -0.156967714305830 100
0.857806993901171 -0.971281048516349 -0.205242018132783 80
0.835692738030492 -0.955276738248869 0.340088225264712 78
0.845902010762673 -0.966266082727405 0.296485489625214 76
0.849954667666039 -0.970211848099431 0.250723019924780 78
0.838447973873158 -0.956740166289871 0.201487590971817 91
0.850760496791899 -0.970106419833215 0.158430146426692 72
0.843546291408036 -0.961541605796024 0.111907973687993 85
0.845944444567320 -0.963596513936630 0.067199367815940 79
0.855231885877111 -0.973490027188945 0.022618318742719 77
0.845459850277710 -0.966101176494155 -0.022408889865472 85
0.848714065574920 -0.969136924245724 -0.067513383553398 86
0.844187692320403 -0.963628923126035 -0.112082285173488 100
0.846665362931464 -0.965776791279160 -0.157698930366261 100
0.851975962283874 -0.971150419625026 -0.204616280272622 77
0.825852634842280 -0.951040037025164 0.337500034813687 71
0.844741538898860 -0.972449340307732 0.297385293842590 69
0.838495000597976 -0.964578158300673 0.248433311980261 72
0.837528682230415 -0.962787571975169 0.202113328831978 91
0.848332415109022 -0.974863432311563 0.158673885113502 79
0.840016399308915 -0.964626899022173 0.111907973687993 85
0.847655646519540 -0.972713577317883 0.067618055465883 79
0.843603512181630 -0.967722561424407 0.022408889865472 77
0.847158798982332 -0.975232041128374 -0.022548509116970 89
0.847606713062097 -0.975403758537204 -0.067722727378369 86
0.847187082880562 -0.974233789211810 -0.112953842600965 100
0.848162256422533 -0.975011479400742 -0.158673885113502 100
0.845646732607687 -0.971434744198607 -0.203990542412461 80
0.833881766312286 -0.967084572674853 0.342158777625532 82
0.844058314930899 -0.978196075064385 0.298285098059965 69
0.837857914268715 -0.970325304205356 0.249196547961768 79
0.840619192524577 -0.973179725684898 0.203677673482381 95
0.838604242142508 -0.970162248118209 0.157455191679451 72
0.840553657285665 -0.972074503377956 0.112430908144479 81
0.844255078285994 -0.975666521596044 0.067618055465883 79
0.837771753376355 -0.967491320239490 0.022339080239723 81
0.846361670073256 -0.981211666812040 -0.022618318742719 85
0.833927095387442 -0.966113838662919 -0.066885352078482 86
0.842479079473453 -0.975677086955996 -0.112779531115470 100
0.847520112054946 -0.980822777240422 -0.159161362487123 100
0.842420689255705 -0.974233668541697 -0.203990542412461 83
0.829244499826612 -0.968522013835677 0.341641139535327 71
0.832861338093967 -0.972402742741044 0.295585685407839 76
0.831740595865456 -0.970408404069078 0.248433311980261 78
0.838503087678548 -0.977607503326264 0.203990542412461 88
0.837628058790956 -0.976242463949651 0.157942669053071 68
