ply
format ascii 1.0
element vertex 831
property double x
property double y
property double z
property uchar intensity
end_header
10.332140177051860 3.535467693167047 0.955401251999829 50
10.320255760536751 3.535425799192296 0.571717985997918 48
10.318896632745686 3.520879689151612 -0.571403970260461 64
10.300666288660922 3.516666597725585 -0.952263645260913 4
10.378177590167992 3.547174490456078 -1.346656244626880 7
8.199852074488264 2.762741942627995 2.318501006028381 17
9.290388628965310 3.131977526837138 2.263457508807969 28
9.302676664562906 3.139736793808555 1.908471571756201 16
10.335899328803260 3.492478076629933 1.727975100834390 40
10.339109291191619 3.495573379991128 1.340075300083002 47
10.334371342234547 3.497991712823366 0.954529694572352 45
10.339489313422721 3.503747188979892 0.572136673647862 45
8.728506097850294 2.959531064460495 0.160876282538879 4
10.344334970618943 3.487284111780186 -0.190545373482261 32
10.319768967062627 3.481008373180769 -0.570775938785545 57
10.295282423894266 3.476751807341850 -0.950694841891455 4
8.220443135597227 2.737764847479075 2.321606834569611 15
9.302572241887157 3.101768675976202 2.263907410916657 30
9.314899492704061 3.109492392789297 1.908853189746954 16
10.340532885037748 3.453874516528630 1.726723625114068 40
10.333700603258183 3.455602484043297 1.337881651901709 43
10.344629221435834 3.461264519476805 0.954355383086857 47
10.336506068287754 3.462559084255107 0.571299298347975 49
8.751543669282668 2.935020877551713 0.161120616229001 10
10.337473520312200 3.444832445078590 -0.190196325353516 30
10.316098862483660 3.441710954353266 -0.569938563485658 45
10.330034280798621 3.448363886111174 -0.952786579717399 4
8.241432928693408 2.711239258313455 2.324712663110841 17
9.292201140269572 3.058714916020774 2.258508585612405 29
9.323041173619137 3.072473922320852 1.908089953765448 14
10.347494796079287 3.414094538181551 1.725785018323827 38
10.328042721283961 3.409675374918006 1.335444265033606 43
10.353462438384936 3.422075779202659 0.954006760115866 50
10.322581605153580 3.415866265087015 0.569833891573172 49
8.772240510999200 2.904538568327550 0.161295140293374 14
10.350030027585911 3.406920572289884 -0.190196325353516 8
10.310267869786490 3.395826633187882 -0.568891844360799 19
10.323682076732597 3.404239813305254 -0.951043464862446 4
8.243497926686050 2.680065588393965 2.322642110750021 15
9.294880927027998 3.025471392146504 2.256708977177654 29
9.333178603064933 3.041540710171450 1.908089953765448 14
10.342446678138026 3.372442713045921 1.722969197953103 40
10.339292825202905 3.375407603489768 1.335444265033606 43
10.352087296923070 3.381583997240707 0.952786579717399 45
10.323052407833112 3.376087924500900 0.569205860098257 45
8.781824075231683 2.875432800362230 0.161295140293374 8
10.321472147355085 3.361617881436403 -0.568891844360799 26
8.237626687017238 2.647984828201779 2.318501006028381 15
9.301674884262871 2.991814386398592 2.255809172960278 29
9.341869952791296 3.008341518303881 1.907708335774695 14
10.346052934750556 3.335702737998242 1.721717722232781 40
10.351012206020886 3.339296172218844 1.335444265033606 43
10.344284648273883 3.341112904920718 0.951043464862446 45
10.341792623817280 3.344295022954931 0.569624547748201 48
8.801320591268048 2.847839075020441 0.161469664357747 6
10.216881081153316 3.286183637146164 -0.187334130697801 0
10.346452058117773 3.329851901162143 -0.569624547748201 54
9.552034102450634 3.077860343986927 -0.878006952439908 4
8.248660911517980 2.619798789034331 2.319018644118586 15
9.300402300014964 2.957409248967841 2.253109760308152 26
9.349923874926253 2.976750631932678 1.907326717783942 13
10.346340601658609 3.295970385071617 1.719840508652298 43
10.348790213826906 3.300730192883241 1.333738094225934 42
10.352088142575068 3.303772753377211 0.950694841891455 45
10.345793387418517 3.305743467614670 0.569205860098257 45
8.818334404764123 2.821074399090655 0.161609283609245 2
10.180645404720563 3.235358905668800 -0.186461510375937 0
10.340308187911448 3.290073371916766 -0.568682500535828 64
10.284147770708461 3.274181029156980 -0.944245316928129 4
8.266971707138978 2.593881357935122 2.321606834569611 12
9.316757060888246 2.925052885281288 2.254459466634215 28
9.351406892554706 2.939517814642071 1.905418627830177 13
10.355898390912078 3.259241815719722 1.719527639722218 45
10.347564512917620 3.258603935123529 1.332031923418262 40
10.355956690990149 3.265220602352402 0.949997595949474 45
10.349651115142223 3.267204760539747 0.568787172448314 45
8.828614928276048 2.788734639163902 0.161609283609245 2
10.191876890887674 3.199802110465297 -0.186461510375937 0
10.304661262818765 3.237187340695980 -0.566065702723681 16
10.333526007670581 3.250218633308040 -0.947731546638035 4
8.281511447235278 2.566724163341214 2.323159748840226 15
9.304071420852736 2.887210630919018 2.249060641329962 28
9.372352340317601 2.911986352055743 1.907708335774695 13
10.369098495828961 3.223659567726744 1.719840508652298 40
10.343150408028535 3.219552371547261 1.330082013923779 40
10.363486835289057 3.227866701540094 0.949648972978483 45
10.341925762171693 3.225111828664166 0.567740453323455 45
8.860719944722677 2.766594466596068 0.162028141363740 2
10.101756531788981 3.132813040401669 -0.184611555293585 3
10.288635592924113 3.194706268474388 -0.564600295948878 30
10.344808432566055 3.214128094680946 -0.947731546638035 4
8.275642599553297 2.533276947490965 2.319018644118586 15
9.309001210545981 2.851377915099535 2.247710935003899 27
9.382962351562993 2.877615404248318 1.907708335774695 13
10.361404444545039 3.181646502341389 1.716711819351494 43
10.360573807396792 3.183370309653363 1.330813229984210 40
10.361360871777242 3.187570816500982 0.948428792580016 42
10.335941646407981 3.183700653151765 0.566798406111082 42
8.874622478109341 2.735277705338421 0.162097950989489 2
10.078214333839817 3.086990443464018 -0.183983268661843 20
10.353743915936018 3.173362784644906 -0.567531109498483 59
10.336917605245633 3.172153260688314 -0.945988431783082 4
10.427546747734041 3.201956628128331 -1.339344084022571 7
8.280736559800511 2.503256106183538 2.317983367938176 15
9.314675189915349 2.819363376535421 2.246811130786524 26
9.403726475982698 2.849901022472681 1.909998043719213 11
10.355434029269592 3.140299758004494 1.713895998980769 36
10.361575957957198 3.146112209673923 1.329594536550159 40
10.355267338251794 3.146170770026288 0.946859989210558 39
10.343170261861218 3.146439538374683 0.566589062286110 44
8.891295907811214 2.708163963009228 0.162237570240988 2
10.083186407979754 3.050055169866459 -0.183878554223219 28
10.354652684969247 3.136116385782199 -0.567007749936053 64
10.332673517461503 3.131428471202176 -0.944593939899119 4
8.296396317159600 2.477993937750032 2.320053920298996 15
9.322592723956522 2.786273879848484 2.246361228677836 28
9.391047085140341 2.810304342485860 1.905418627830177 11
10.365790700845473 3.105942634844252 1.713895998980769 38
10.372494812727782 3.109924392700120 1.329594536550159 40
10.358010458013466 3.109522698893538 0.946162743268577 39
10.357372798896398 3.113272919535151 0.566798406111082 42
8.900694995363992 2.677111049303831 0.162237570240988 2
10.076001729237412 3.011447701596847 -0.183564410907348 22
10.354055571255754 3.096519213869596 -0.566379718461138 64
10.327731656745815 3.092574595303121 -0.943199448015157 4
8.304995585719851 2.449019013417221 2.320053920298996 15
9.322436218434229 2.752584521819019 2.244111718134397 23
9.387135863905719 2.775250795460956 1.902747301894905 11
10.376569311955173 3.069740350399017 1.713895998980769 38
10.361813859721302 3.069309097534568 1.326913410995246 36
10.355429908913756 3.069384132761960 0.944942562870110 35
10.356688763940896 3.073690445335167 0.566170374636166 44
8.932525889069092 2.654415967316013 0.162656427995482 2
10.113303432400350 2.984180649453406 -0.184053078287592 14
10.337451371433129 3.054244090394102 -0.564914311686336 64
10.334642559959844 3.055375505495216 -0.942850825044166 4
10.459425043843039 3.096237261067503 -1.339344084022571 7
8.314925929964293 2.422005454494802 2.320571558389201 15
9.324504185308648 2.717845120836697 2.242312109699646 25
9.415612409238411 2.747967002868308 1.906563481802436 11
10.377211515252810 3.032543070309594 1.712331654330367 43
10.359127505466176 3.029220872773814 1.325207240187574 38
10.371287747543271 3.036707007767426 0.945465497326596 39
10.347658664080665 3.033710504589702 0.565123655511307 42
8.976276008625319 2.633352068931657 0.163284714627225 2
10.348049693598369 3.018141043634414 -0.564914311686336 57
10.393953234038319 3.037435519809486 -1.329594536550159 7
8.325186292152351 2.393499977636346 2.321089196479406 15
9.318484129487347 2.682596151486197 2.238712892830145 23
9.420900338371842 2.715641036200144 1.905800245820929 9
10.364957888681786 2.989731731217930 1.708577227169402 40
10.367208666681112 2.994301284303712 1.324963501500763 35
10.376082488073152 2.998826396038647 0.944942562870110 35
10.354348172992866 2.996461535359873 0.564914311686336 42
9.065627886884593 2.626946557862345 0.164750716767956 2
8.330185815947553 2.361916611290810 2.320053920298996 15
9.324504447311233 2.647359702138421 2.237813088612769 20
9.435035213130451 2.680520512297156 1.906563481802436 9
10.368246223265599 2.949560142152974 1.707325751449080 40
10.378629505706080 2.954472085327255 1.324963501500763 31
10.373591566886088 2.956952834972491 0.943722382471643 39
10.365261205386791 2.958490825497950 0.564914311686336 41
8.487639268588444 2.408161048542940 -0.154000034402590 0
8.487985656955690 2.411461022412530 -0.462440509362652 1
8.464954005352206 2.406514405210744 -0.769933831432812 3
10.369083304909809 2.951754579730009 -1.323744808066712 7
8.334251763384692 2.333238108884211 2.319018644118586 14
9.333232139155731 2.616423975020854 2.237813088612769 21
9.438201402403019 2.647627266137640 1.905418627830177 9
10.374166764850845 2.914093169183129 1.706700013588919 35
10.376903631118566 2.916816063763451 1.323501069379901 35
10.375668664260138 2.920377263533506 0.943025136529661 39
10.367325454617113 2.921934908325615 0.564495624036392 42
8.460918239351196 2.370291892151677 -0.153371747770847 12
8.469013294465885 2.375748255382755 -0.460975102587849 20
8.465214771885329 2.376276486732307 -0.769236585490831 24
8.342747528999629 2.302675877235222 2.319018644118586 15
9.342759122898270 2.582198395153735 2.237813088612769 21
9.451626481894211 2.614063417140350 1.906181863811683 9
10.384777768973299 2.876050373803209 1.706700013588919 35
10.379872644944735 2.876642583089293 1.322526114632660 35
10.378623354096797 2.880197809251489 0.942327890587680 40
10.372192226310059 2.882312879152849 0.564181608298934 45
8.502316903989829 2.348315567167079 -0.153965129589715 16
10.385832005973624 2.870488084449505 -0.564704967861364 4
8.481548223867801 2.347359712830596 -0.769933831432812 24
8.598880858648466 2.383064579982744 -1.095605397212276 3
8.367112837921415 2.279567976384738 2.323677386930431 15
9.332470328853418 2.546073415450058 2.233314067525892 22
9.467818830537096 2.584774554529445 1.907708335774695 9
10.396163451849374 2.842118312341265 1.707012882518999 38
10.375951714897299 2.838539181711953 1.320819943824989 38
10.388117369025379 2.845765217647758 0.942327890587680 40
10.372062777167287 2.845259764086950 0.563658248736505 44
10.368790718750521 2.846308144797153 0.187683178826547 24
8.593016523268810 2.342725195645175 -0.155466036543322 9
10.372171720491648 2.829723508081186 -0.563448904911533 54
8.596915327622224 2.348624731290302 -0.779695274620550 3
8.466522550930859 2.340019758185157 -0.460347071112934 16
8.373153363906342 2.249846111597974 2.323159748840226 15
9.333773690174503 2.511456135287536 2.231514459091141 22
9.474887960415169 2.551199507919213 1.907326717783942 9
10.379319292489068 2.798611951284077 1.702632717497873 36
10.389629956437689 2.803337308812138 1.321307421198609 38
10.394140823162868 2.808447187974075 0.941979267616689 40
10.372291720713251 2.806428968817529 0.563134889174076 45
10.378663018082960 2.810096970117336 0.187683178826547 58
10.373784107559617 2.793235447325182 -0.563030217261590 59
8.808981702377054 2.373547210260864 -0.798172292083053 3
8.376833428023520 2.221077137927020 2.322124472659816 15
9.345817614495980 2.481490615245876 2.232414263308516 21
9.488988201174609 2.521278084180225 1.908471571756201 9
10.377089014502417 2.761129895710807 1.700755503917390 33
10.395032519042523 2.767847106334210 1.320819943824989 38
10.387995787576177 2.769856999370085 0.940584775732727 45
10.371892871726152 2.769441554570932 0.562611529611646 44
10.385992651757766 2.775148421777360 0.187648274013672 60
8.943140976593178 2.372901545980583 -0.161504569170622 9
10.375268641360062 2.756767833234880 -0.562611529611646 61
8.920780523079216 2.371969043946871 -0.807585112299801 3
8.377441296548525 2.188406527542046 2.320053920298996 15
9.354849958217839 2.447219813626962 2.232414263308516 21
9.490568398684248 2.484493480826755 1.906945099793189 9
10.387139360573011 2.723077417175212 1.700755503917390 38
10.399347017084002 2.728217617620531 1.320088727764558 40
10.390370057165354 2.729739457623298 0.939887529790746 39
10.378110656463326 2.730391727138200 0.562402185786674 44
10.372888750815697 2.730953699513851 0.187229416259178 60
9.050446856813464 2.365900630619218 -0.163284714627225 3
9.151059598631480 2.397321684884637 -0.827630933131762 3
8.380910774071157 2.159649769126558 2.319018644118586 15
9.362913795425186 2.416184557605940 2.232414263308516 21
9.491151527385618 2.451044376775629 1.905418627830177 9
10.386550017317758 2.686144475270349 1.699191159266988 35
10.396806279674992 2.690732962474648 1.318626295643696 40
10.397436404004001 2.694768875439001 0.939713218305250 42
10.383241490295639 2.694958137457843 0.562192841961703 44
10.376081460980199 2.695032812615013 0.187124701820554 56
9.364185915910204 2.414769720277305 -0.168799675061406 9
9.452493078345453 2.441061017658313 -0.511636308231019 23
9.427092052228851 2.436256470079233 -0.851860229615611 11
9.549303216951024 2.471395950191595 -1.211137534760356 5
8.407494926236518 2.133669738028015 2.324195025020636 15
9.341487538955537 2.374171238847715 2.225215829569513 21
9.505779337915220 2.417692881389500 1.906563481802436 9
10.402068233159039 2.649520570078634 1.700129766057229 33
10.398904132969177 2.650647426035820 1.317651340896455 40
10.409173872875657 2.657135057837043 0.939887529790746 39
10.381439079922673 2.653915521164383 0.561564810486787 44
10.385889555898281 2.656984470909002 0.187124701820554 56
9.409798757014366 2.389784444121790 -0.169462866506023 4
9.457505256676017 2.405414887295726 -0.511426964406047 12
9.470712968592540 2.410534083219350 -0.854997836354527 7
9.512131139018237 2.424611824222555 -1.205287806276909 5
8.405153908590625 2.103432784422505 2.321606834569611 15
9.349309211830651 2.343180695851644 2.225215829569513 21
9.523265791945457 2.388545355600330 1.908471571756201 9
10.395470265386585 2.611161649488235 1.697626814616585 38
10.407636819884894 2.616148843091691 1.317651340896455 40
10.406335367216544 2.619684057442496 0.938841660877774 40
10.378562738247826 2.616545321259610 0.560936779011872 42
10.384948641838381 2.620083078342383 0.186950177756181 51
8.738745950999666 2.188536689693227 -0.157246181999924 0
10.389500726574653 2.605807109621442 -0.561355466661816 54
9.540492831393756 2.394636051654361 -0.860575803890377 3
8.404580513579372 2.073697621708360 2.319536282208791 15
9.353244398437113 2.311229422291617 2.224316025352137 20
9.527322440316524 2.356009342905268 1.907708335774695 9
10.396402240231067 2.574775168612399 1.696375338896263 36
10.416255057361674 2.581621491199101 1.317651340896455 40
10.399495650177878 2.581321178636420 0.937447168993811 40
10.387182450352761 2.582114380316137 0.560936779011872 44
10.395520599383225 2.586113695624322 0.186985082569056 54
9.912729861329721 2.447645176736630 -0.178223974537539 5
10.398533394455839 2.569525108738112 -0.561355466661816 47
10.376152629962553 2.567838171129721 -0.935181119682372 4
10.395060309742183 2.576368469296920 -1.314970215341541 6
8.413288059547051 2.046272179840280 2.320053920298996 15
9.358963906801330 2.279739032670216 2.223866123243450 18
9.531268068285993 2.323472701980067 1.906945099793189 9
10.399126303278214 2.538879756091815 1.695436732106022 35
10.422830382379175 2.546594594707577 1.317407602209644 38
10.396386689880519 2.543979638220816 0.936401300080839 40
10.395687937948891 2.547655044690261 0.560936779011872 42
10.382675772943859 2.546387207858691 0.186601129627435 51
9.922735009176318 2.415232847905022 -0.178258879350414 5
10.399235000829067 2.533137447412487 -0.560936779011872 64
10.376868349478469 2.531526643610758 -0.934483873740391 4
10.403546699895585 2.541883041340865 -1.314970215341541 6
8.438345024680448 2.016523810527120 2.324712663110841 12
9.366144721516010 2.241697875096599 2.223416221134762 18
9.529062770658069 2.282449243939548 1.904655391848670 9
10.407313328119752 2.496653836404329 1.695123863175942 36
10.411736378325369 2.499636749577657 1.314726476654731 40
10.406515086300971 2.502225482205235 0.936401300080839 40
10.401947596657472 2.504968450863313 0.560727435186900 41
10.383093766761839 2.502345490009265 0.186426605563062 49
9.998475310169788 2.391195251989634 -0.179445642988149 4
10.383634725540064 2.487140634819919 -0.559576044149555 14
9.646821242988887 2.312435707344478 -0.867896886281180 3
10.483155407987594 2.516782941593670 -1.323744808066712 7
8.426181418437643 1.984102350962069 2.319536282208791 10
9.360250010942529 2.207495095602950 2.220266906373948 18
9.546133027132875 2.253092079374544 1.906563481802436 9
10.415535307653245 2.462128214273194 1.695123863175942 38
10.412241144609180 2.463268415173931 1.313751521907490 40
10.414755546466763 2.467702476504559 0.936401300080839 39
10.394650868928087 2.466771256913030 0.559890059887013 39
10.391334753666214 2.467900151543209 0.186426605563062 49
10.029706408277281 2.363530013588631 -0.179864500742644 0
10.366555230600063 2.446729310609537 -0.558215309287239 2
9.712607451659057 2.294173287915620 -0.873126230846040 3
8.442124020455829 1.958331932210950 2.322124472659816 15
9.356129781962160 2.173797118838150 2.217567493721821 18
9.559288782449332 2.222757494499594 1.907708335774695 9
10.408251620952107 2.423991056935688 1.692620911735298 38
10.418419111976053 2.428276036745163 1.313507783220680 38
10.422881478911266 2.433152334272432 0.936401300080839 39
10.391104980554886 2.429559479960061 0.559262028412098 41
10.403355670538936 2.434338899863182 0.186496415188812 47
10.378370161596340 2.409394714561083 -0.185972842995693 8
10.392541715209848 2.414596394492364 -0.559157356499612 21
10.201415569783201 2.373943766864629 -0.916355479248878 4
8.433505108809928 1.926883672056726 2.317983367938176 14
9.357588013326541 2.141454947384625 2.216217787395758 18
9.581916785078336 2.194551903198123 1.910761279700720 9
10.414307270390236 2.389021047658191 1.692308042805218 40
10.432218557394883 2.395046518027236 1.314238999281111 40
10.411475644621945 2.394110477449680 0.934658185225886 39
10.399104556303559 2.395087975553909 0.559262028412098 39
10.403576627137328 2.398030130730201 0.186356795937313 49
10.405796750415281 2.379423069135586 -0.186321891124439 25
10.406332448964081 2.381456853542463 -0.559471372237069 33
10.329637384873450 2.367700288330773 -0.927162791349588 4
10.426414281491288 2.393713962471954 -1.313507783220680 6
8.447719048788786 1.899128399986788 2.320053920298996 14
9.365006076440833 2.108777823066461 2.216217787395758 17
9.579942712201644 2.158933331746837 1.908853189746954 9
10.416802373126229 2.351348921395149 1.691369436014976 36
10.423088597180421 2.354679827913944 1.312045351099818 33
10.415882696081662 2.356873629057293 0.934309562254896 39
10.411297333255613 2.359656674643947 0.559471372237069 41
10.400182995079854 2.359046168812392 0.186147367060066 49
10.408186315434216 2.341768730322255 -0.186217176685815 23
10.425862798222543 2.349569656469175 -0.560099403711985 52
10.384484906411929 2.342149303406007 -0.931346267001475 4
10.430833786552283 2.356429543557946 -1.313020305847059 6
8.455856541979092 1.871521782898747 2.320571558389201 15
9.379557732551175 2.079397887257912 2.218017395830509 16
9.565966244075724 2.122475360400111 1.904655391848670 9
10.430327436736025 2.318078309878346 1.692308042805218 40
10.425026475408670 2.318809657189257 1.311314135039387 35
10.417806973144721 2.321020552266200 0.933786627798410 35
10.413217060216645 2.323813569864289 0.559157356499612 38
10.409900302703555 2.324980827751634 0.186182271872941 51
10.415894672647026 2.307241064871737 -0.186217176685815 30
10.410198840124449 2.309791815198365 -0.558843340762154 64
10.446341585302630 2.323550717826633 -1.313995260594300 6
8.456996048869428 1.839285284461679 2.319018644118586 15
9.366171222319682 2.040443228717696 2.213068472634944 16
9.600535898282256 2.093255344859410 1.909998043719213 9
10.425244357734416 2.276883256079717 1.690117960294654 36
10.421819491004040 2.278041047323278 1.309851702918525 35
10.428190248446345 2.283247929179064 0.933960939283905 34
10.406057184276925 2.282208727560154 0.558319981199725 37
10.414445468491341 2.285953572410536 0.186112462247191 51
10.416465403887983 2.267348149760876 -0.186077557434317 31
10.410789074502670 2.269919107151696 -0.558424653112211 64
9.082747570214989 1.982019894862972 -0.813337391321146 3
10.412122971194767 2.275921545046274 -1.308633009484474 6
8.455492545628299 1.809613591605769 2.316948091757766 15
9.376696968376070 2.010189650838596 2.213968276852320 18
9.603585465439609 2.060583571932924 1.909234807737707 9
10.421149814384396 2.239808859543611 1.688240746714172 38
10.427375745641205 2.243051055868857 1.309607964231715 33
10.427913687576405 2.246975523486286 0.933263693341924 34
10.403806545254970 2.245581505490251 0.557796621637295 39
10.418059485988621 2.250560969582489 0.186042652621442 51
10.408284193952852 2.229442782982686 -0.185798318931320 32
10.414353528793123 2.234545198869687 -0.558215309287239 64
9.093166203110130 1.952726164304944 -0.813686014292137 10
10.442901337668959 2.246390793156582 -1.311557873726197 6
8.465849402135358 1.779405239490543 2.317983367938176 14
9.378280910805337 1.974604319702196 2.212618570526256 16
9.609152314313002 2.024965999795041 1.908853189746954 9
10.421558001277827 2.199966369186993 1.686989270993850 38
10.437469116135347 2.205228098424806 1.309851702918525 35
10.426333163993359 2.206677515700279 0.932392135914447 35
10.417828626534487 2.208677256777845 0.558110637374753 38
10.424282085949523 2.211946678902327 0.186007747808568 47
10.416385599805970 2.191279539638229 -0.185798318931320 32
10.418564923278618 2.195535989670153 -0.558005965462267 64
9.106110722822182 1.920618465880341 -0.814208948748623 10
10.431642467949933 2.203997044406333 -1.309120486858094 6
8.475487274113037 1.752103876651825 2.319018644118586 14
9.392410372872845 1.945074681403672 2.214418178961007 16
9.617736903117503 1.993488227036847 1.909234807737707 9
10.428796051393514 2.165395141305799 1.686989270993850 36
10.440837394975416 2.169796261529207 1.309364225544905 35
10.414087753075741 2.168029674805880 0.930649021059494 32
10.421185195058831 2.173302849798464 0.557901293549781 38
10.417857293597388 2.174506234577126 0.185763414118446 10
10.423594871796407 2.156725511821558 -0.185798318931320 34
10.429699680024727 2.161785431759928 -0.558215309287239 61
9.147544990539917 1.897695774954649 -0.817346555487538 10
10.469990887329223 2.175854888469442 -1.313020305847059 6
8.472385774817020 1.719107104284000 2.316430453667561 14
9.388018222704948 1.908307613807839 2.211718766308881 15
9.609588070599413 1.955092789478004 1.906181863811683 9
10.450211652880688 2.129918665510760 1.689179353504413 40
10.435104732239054 2.128736629807202 1.307658054737233 33
10.429772206488066 2.131441261614192 0.931346267001475 32
10.429080751117171 2.135092699002264 0.557901293549781 35
10.427510272770029 2.117710658259683 -0.185728509305571 31
9.197390040094314 1.872901904866465 -0.821181408168435 6
10.493455737265554 2.140640096516282 -1.314970215341541 6
8.489407159766941 1.693269473892092 2.319536282208791 15
9.384739964602966 1.875256090407710 2.209469255765442 16
9.619868812828123 1.923985553571431 1.906945099793189 9
10.443659096119555 2.092536232324529 1.686989270993850 36
10.424589454289118 2.090607900286342 1.305464406555940 31
10.434829617644489 2.096450724436404 0.931171955515980 34
10.424355671968103 2.098132344653896 0.557273262074866 37
9.017438439367167 1.816596760888781 0.160562139223008 2
10.434475520391025 2.083120144204733 -0.185728509305571 28
9.305030763780710 1.859328620401375 -0.497296256220452 8
9.273880910951281 1.856470950159787 -0.827456621646267 3
8.489868561927990 1.661030074125315 2.317983367938176 14
9.388046401122992 1.838458524974198 2.208569451548067 16
9.646121228680119 1.892493744666856 1.910761279700720 9
10.439628738112601 2.051958372953408 1.685112057413367 38
10.439972919907220 2.053918602779006 1.306439361303181 31
10.446352968171940 2.058961650012116 0.931520578486971 34
10.424137995315801 2.058363436702936 0.556854574424922 34
9.045615247544072 1.787798967673695 0.160946092164629 2
10.418491402852492 2.040250284090348 -0.185309651551076 26
9.319622894770006 1.826748185691389 -0.497714943870396 8
9.943384917420804 1.952616871299242 -0.886548215229179 4
8.486128967848630 1.629563227711521 2.315395177487150 14
9.380695804180082 1.804739385532305 2.205420136787252 14
9.644632846814471 1.859009332701197 1.909234807737707 9
10.431210945027827 2.012511072473736 1.682609105972723 38
10.448675573073842 2.019663844517340 1.306683099989991 38
10.439783640585583 2.019835316821148 0.930300398088503 30
10.423416464874736 2.020443590820394 0.556435886774979 33
9.031863847516057 1.753980624003402 0.160597044035883 4
9.958177188339528 1.914037948754975 -0.177002306086929 10
9.360931434609151 1.802631264979283 -0.499599038295142 8
9.856234083380800 1.899795610399455 -0.878181263925404 4
8.497460853731607 1.601004240905992 2.316948091757766 15
9.391077462717346 1.771067589666651 2.206319941004628 14
9.643665200043634 1.822189456418606 1.907708335774695 9
10.453699587246483 1.979026602540453 1.685112057413367 36
10.450156677824735 1.980245208497159 1.305951883929561 31
10.436983460084708 1.981523223196166 0.929428840661027 29
10.430405626134315 1.984046768152042 0.556435886774979 33
9.030374218732204 1.719369327540864 0.160457424784385 4
9.457754995413303 1.785351790976640 -0.504413946269493 2
10.414872088041049 1.969793209311295 -0.927337102835083 4
10.499263344824552 1.987652437595893 -1.312045351099818 6
8.493499198553012 1.569577526407279 2.314359901306740 14
9.396898899158021 1.739915916625887 2.206319941004628 15
9.657376041963195 1.791632337573215 1.909234807737707 9
10.456659645662796 1.941803000823034 1.684486319553206 36
10.443004758019882 1.943038533786005 1.304245713121888 28
10.437960554088185 1.943984899302813 0.928905906204541 30
10.435304327551858 1.947259399963734 0.556331214862493 31
9.032094929910350 1.688679066605459 0.160387615158635 4
8.693177607324415 1.608046710163749 -0.154314177718461 0
9.650185837625088 1.788556226557253 -0.514357777955652 23
10.423643461781603 1.933789946701208 -0.927511414320578 4
10.490183612781038 1.949922486670960 -1.310095441605335 6
8.496756564660787 1.541058682155488 2.313842263216535 14
9.406749884073337 1.707800226838134 2.207219745222003 17
9.657776503975825 1.756856774922720 1.908089953765448 9
10.459154685480424 1.906408352534486 1.683860581693045 38
10.445817897176836 1.905861202117996 1.303758235748268 28
10.446309556857278 1.909718982313713 0.929080217690036 29
10.425987713382222 1.909765115036648 0.555493839562606 31
9.041868305890359 1.657862163681583 0.160457424784385 4
8.698462284337753 1.579210252787365 -0.154314177718461 0
9.658335345029384 1.755217009555170 -0.514462449868138 21
10.431958985250123 1.899570194595311 -0.927685725806074 4
10.484874984098415 1.912987248863623 -1.308633009484474 6
8.521104420549229 1.514771264028591 2.319018644118586 14
9.410442891351558 1.676255185864190 2.206769843113316 16
9.675145608473862 1.726890559055162 1.910379661709967 9
10.444355159019025 1.866065705665048 1.680419023462160 35
10.444264425424494 1.869811844693620 1.302783281001026 28
10.456834371095448 1.873945827825427 0.929428840661027 29
10.428658885111803 1.872653995475943 0.555284495737634 31
9.043380076839915 1.627160901299753 0.160387615158635 6
8.676359015789069 1.543932622074203 -0.153825510338217 0
10.444702707173301 1.862365762422592 -0.556017199125035 33
10.424796426278958 1.860693704996632 -0.926465545407606 4
10.479764161244260 1.874279649992301 -1.307170577363612 6
8.518727241909545 1.483691921541752 2.316948091757766 14
9.422282807180730 1.642757059607431 2.208119549439379 18
9.675608108962077 1.690404144194531 1.909234807737707 9
10.444967961637197 1.828574803060583 1.679480416671919 31
10.456913358911121 1.832547123589657 1.303514497061457 26
10.445650701898440 1.834331803443942 0.927860037291569 32
10.435132132472619 1.836239773730761 0.555284495737634 31
9.055191305340099 1.595045026271521 0.160492329597259 6
8.665935658601873 1.510889374963646 -0.153546271835220 0
10.443588389728500 1.822697956320438 -0.555598511475092 35
10.421414939548653 1.822576864542949 -0.925593987980130 4
10.482652641080829 1.835172167030021 -1.306683099989991 6
8.512428315937255 1.451997984496740 2.313842263216535 14
9.443045618241472 1.614129347533119 2.211718766308881 21
9.665679922887076 1.655657673063227 1.906181863811683 8
10.459075088986667 1.793439318414238 1.680731892392241 36
10.453150709769213 1.796179801329981 1.302295803627406 28
10.446099418758475 1.796845244065077 0.927337102835083 34
10.445414697858135 1.800481708870500 0.555493839562606 31
9.048607782948709 1.562965956793951 0.160282900720012 6
8.655387527225148 1.477937742277696 -0.153267033332224 0
10.449575251572595 1.788055747388257 -0.555598511475092 33
10.441459944112568 1.788542907728383 -0.926814168378597 4
10.504332481237743 1.803087011239696 -1.308633009484474 6
8.528877686041991 1.424184312733106 2.316948091757766 8
9.429677566559507 1.576295019032445 2.207219745222003 16
9.658129378595667 1.617949485769177 1.903510537876411 9
10.461375411013615 1.756265304372656 1.680106154532080 36
10.451833271062480 1.756539018120919 1.301320848880165 28
10.454272657477400 1.760701502079624 0.927511414320578 30
10.455574726191530 1.764674224041885 0.555703183387578 31
9.042445062375958 1.527791797832708 0.160073471842764 6
8.692051014627578 1.452991008740542 -0.153825510338217 0
10.442269540684356 1.747436629669559 -0.554865808087690 33
10.449604461065366 1.752414039398825 -0.926988479864092 4
10.499124393097851 1.762602638127081 -1.307170577363612 6
8.531890488480323 1.394092768039674 2.316430453667561 10
9.407929146930746 1.540607480442424 2.200921115700375 15
9.669253602550320 1.586866915613745 1.904655391848670 8
10.467442186704844 1.719737589719769 1.680106154532080 36
10.451724539653219 1.720902308154816 1.300589632819734 26
10.464286686886046 1.724846626763306 0.927860037291569 32
10.441965350387724 1.724911542066359 0.554656464262719 31
9.051407371726004 1.498450773453914 0.160143281468514 4
8.681282207209430 1.420058724558422 -0.153546271835220 0
10.448006834226948 1.712799208010731 -0.554865808087690 23
10.465488306814281 1.717540756759738 -0.927860037291569 4
10.528416969330863 1.731642588350963 -1.310095441605335 6
8.536704801177484 1.364302419141311 2.316430453667561 14
9.455846431187206 1.512888557250932 2.210818962091505 26
9.682758775021359 1.552660042257253 1.906181863811683 8
10.459728967413669 1.680994819593241 1.677916072021516 35
10.461881535481357 1.683213917149314 1.301077110193354 26
10.466309809720157 1.687674596378293 0.927511414320578 32
10.445951121073621 1.688133136260856 0.554551792350233 28
9.056838671808789 1.465265642205983 0.160143281468514 4
8.642745443714631 1.382796429720235 -0.152778365951980 0
10.418305411100562 1.672472344061711 -0.923153627183195 4
10.526853267789400 1.691782441485926 -1.309120486858094 6
8.543323792931680 1.334793657921513 2.316948091757766 14
9.435782757503162 1.477604147729547 2.204970234678564 15
9.703370425202547 1.522977623022516 1.909234807737707 8
10.463581577515791 1.644166677575453 1.677603203091436 36
10.469366673772035 1.648820638632747 1.301320848880165 28
10.456392513981308 1.648647639591976 0.926116922436616 32
10.449807386647755 1.651347925968452 0.554447120437747 30
9.073498325136859 1.437100954012419 0.160352710345761 4
8.651470994976508 1.353237251298818 -0.152848175577729 0
8.557585561030233 1.341612384978425 -0.453962084451295 7
10.278426271971279 1.613234631488598 -0.910254577256542 4
8.542429343530511 1.302598204688674 2.315395177487150 14
9.422122573315978 1.438421583390560 2.200471213591687 11
9.689740045052934 1.482738585191380 1.905418627830177 9
10.463679837720653 1.604906254330284 1.676664596301194 35
10.469734215251863 1.607705218311574 1.300589632819734 26
10.460395675091508 1.610008882507153 0.925942610951120 34
10.457763597840220 1.613340894321206 0.554551792350233 28
9.071044446081714 1.401029772221887 0.160213091094263 4
8.561486724840687 1.307033228988073 -0.151172744559750 6
8.552802230498363 1.307234993699823 -0.453438724888865 13
8.545279141846866 1.309137853785314 -0.756337535564178 5
8.554567341112751 1.273909807383293 2.317465729847971 14
9.694603705910906 1.450598096667821 1.905418627830177 9
10.478986141864286 1.569834723902087 1.678228940951597 31
10.463229496982917 1.571208773483303 1.299127200698872 31
10.465951926565655 1.573485478815019 0.925942610951120 34
10.463331496241635 1.576826657993501 0.554551792350233 28
9.069708761339154 1.370045361370380 0.160108376655639 4
8.554129961621420 1.275370799810348 -0.150963315682502 21
8.557090151744053 1.278865691812910 -0.453438724888865 24
8.545855918404245 1.278711611705828 -0.755988912593187 23
8.627973390133013 1.294078124163019 -1.071231528531246 3
8.564479885133265 1.246369457816624 2.319018644118586 14
8.521500982791929 1.241633654249036 1.988117418291079 2
9.705436099365416 1.417600017985331 1.906563481802436 8
10.476316138011752 1.533931796900062 1.676977465231275 31
10.460793895568091 1.533523987675466 1.298152245951631 31
10.480968339190916 1.540218870865538 0.926814168378597 32
10.458623236602923 1.540664950744340 0.554028432787803 31
9.086305622021364 1.340128480576425 0.160317805532886 2
8.613718624400160 1.255070316119694 -0.151940650442990 11
8.551620396575881 1.247546498018645 -0.452915365326436 11
8.557934971592401 1.251518709199773 -0.756686158535168 11
8.564953001225676 1.215923185385190 2.317983367938176 15
8.542935223740599 1.215839730703325 1.992166537269269 2
9.715914381419976 1.386239747854687 1.907708335774695 8
10.462051497462594 1.494559714349613 1.673848775930471 28
10.473681901408682 1.499951980734224 1.299127200698872 31
10.480364199997807 1.502775693629425 0.926291233922111 34
10.452075810156757 1.502443095282712 0.553400401312888 31
10.472216863156083 1.509069502866232 0.184681364919334 21
9.045682856066639 1.285780606615326 -0.159480090023897 7
9.033658520546062 1.288897371684838 -0.798346603568549 3
8.559370236510473 1.186188149665938 2.315395177487150 14
8.535545776694015 1.184404852247980 1.989467124617142 2
9.722638596201614 1.352586949511963 1.908089953765448 8
10.468906551440313 1.460130954431109 1.674161644860551 29
10.480819915523888 1.463657425847253 1.299370939385682 28
10.479370525633227 1.467184529019474 0.925768299465625 35
10.468867844136621 1.469440219153172 0.554028432787803 31
10.479400932915345 1.472783754292945 0.184716269732209 40
9.444059646308043 1.310471569439463 -0.166426147785936 6
9.410564112193843 1.307497798855638 -0.497924287695368 8
9.012229608474060 1.255360201407219 -0.796080554257110 6
8.565373136920487 1.156561652470580 2.315912815577356 14
8.554875458420650 1.158184980624901 1.993066341486644 1
9.729015891890576 1.320602148695464 1.908471571756201 8
10.481769098863117 1.424642914383725 1.675413120580873 35
10.491516691898269 1.429697831370101 1.300102155446113 31
10.482454014673205 1.430326396203563 0.925593987980130 34
10.473933367791741 1.432888098464577 0.554028432787803 30
10.482246094047960 1.437752975050941 0.184681364919334 51
8.706310107619439 1.180234087928510 -0.460451743025420 7
8.734234062528982 1.185571942564015 -0.771154011831280 9
8.565527370556266 1.126152228540620 2.314877539396946 14
9.710434366194852 1.281851426121402 1.903892155867164 9
10.486678172144087 1.388046032832572 1.675413120580873 29
10.480943265307753 1.389148305880552 1.298152245951631 31
10.477507797672544 1.392414728500035 0.924722430552653 35
10.478871269874146 1.396318518486694 0.554028432787803 31
10.467624023444932 1.396679240479056 0.184332316790588 42
10.485906445994649 1.380495773082971 -0.184611555293585 9
8.682855629237915 1.144661375668219 -0.458986336250617 28
8.692889489764072 1.149071408333935 -0.767144847664887 30
8.586652312886200 1.098452317182262 2.319536282208791 15
8.750243994989734 1.122484410351990 2.036706846029354 6
9.724367798502493 1.250895815996152 1.905800245820929 8
10.489500279117680 1.351179870080060 1.675100251650792 33
10.485492219311562 1.354384607520125 1.298152245951631 31
10.490208116347294 1.356855223698523 0.925419676494634 35
10.471797475680633 1.358190569896379 0.553400401312888 30
10.480130005244030 1.362991261159316 0.184471936042087 46
8.682641758931757 1.115352750153669 -0.458776992425646 37
8.700799751730706 1.119228954599635 -0.767493470635878 39
8.715794183811610 1.124250633594465 -1.079031166509176 3
8.596185553416907 1.069187950368437 2.321089196479406 15
8.742696549906924 1.088960420406426 2.034007433377227 6
9.736679704911619 1.216219188958033 1.907326717783942 8
10.482392520796402 1.313083281754216 1.673223038070309 28
10.490385858029404 1.315944260212957 1.298152245951631 35
10.496857324305402 1.320477975049605 0.925593987980130 34
10.472511540252599 1.321128946466453 0.553191057487916 31
10.496958788110634 1.326074279276429 0.184681364919334 42
8.814534235416644 1.097908277142289 -0.155047178788827 1
8.694599014881224 1.084510625962882 -0.459195680075589 41
8.702676599198552 1.088603379455839 -0.767319159150383 33
8.727735020941925 1.093285041639418 -1.080006121256417 3
8.580686341053420 1.036857631067951 2.315912815577356 14
9.342111838172190 1.132174170838525 2.172577282853048 6
9.750403854632509 1.185108906594772 1.909234807737707 8
10.482990367393832 1.276007534639924 1.672597300210148 31
10.500603399169611 1.281871290519901 1.298883462012062 28
10.493492041001591 1.282861957501076 0.924896742038148 39
10.481024167265586 1.285051127784988 0.553400401312888 31
10.489390008646430 1.289793530500648 0.184471936042087 46
8.943381323001450 1.082268058123895 -0.157246181999924 0
8.706078414772053 1.056634879615646 -0.459614367725533 39
8.690600845628524 1.056295577020753 -0.765924667266420 28
8.857424886672078 1.079709771448527 -1.095605397212276 3
3.407148870376042 0.424382825721142 -0.059931563705632 1
3.351038329240055 0.405520195807577 -0.058919324132269 3
8.580415977794203 1.006449017888877 2.314877539396946 14
9.442970289803755 1.109294062033009 2.195072388287435 10
9.741033638551020 1.147755785206451 1.906563481802436 8
10.483457149403799 1.238943619099484 1.671971562349988 26
10.505231161795663 1.243376045027762 1.298883462012062 28
10.489992146170801 1.245285535405653 0.924199496096167 39
10.491395730649614 1.249166108753204 0.553714417050346 33
10.492061254502426 1.251102559057553 0.184437031229212 48
3.370307792140278 0.395920171969797 -0.059233467448140 13
8.717827011709645 1.025651881423521 -0.460033055375476 28
8.702149701913429 1.026887241948542 -0.766621913208401 27
8.591554751936537 0.977365072312686 2.316948091757766 14
9.450469270449140 1.078415827982001 2.195972192504810 11
9.738934621436867 1.114777238777374 1.905418627830177 8
10.503418177540739 1.204141889634446 1.674474513790631 31
10.487603534211940 1.206037981221269 1.296202336457149 33
10.502192315254273 1.209572895687276 0.924896742038148 40
10.489740028519144 1.211849054094567 0.553400401312888 31
10.482247551614496 1.214691449235237 0.184192697539090 44
3.361735073081753 0.383021330500546 -0.059058943383767 32
8.725148945056528 0.997190463530995 -0.460242399200448 5
8.715578509159974 0.997637721420015 -0.767493470635878 24
8.598423128400107 0.950793779405451 2.317983367938176 15
9.432505118920028 1.046357594177499 2.191023269309245 8
9.740626560702049 1.082258839690315 1.905037009839423 8
10.505186043164503 1.170919717734540 1.674161644860551 29
10.495490909150998 1.171693689765493 1.296689813830769 37
10.509900490919859 1.177016858626754 0.925245365009139 39
10.489525847387409 1.178442680365444 0.553191057487916 31
10.498140909849136 1.181265970357700 0.184402126416338 44
3.360934236194137 0.372238126538529 -0.059024038570893 57
3.382515046256185 0.375823545475539 -0.178360938875953 4
8.720649831440522 0.970472407484744 -0.767667782121373 18
8.609212163645267 0.923098980742398 2.320053920298996 15
9.433985541416693 1.014864092995904 2.190573367200557 6
9.759777547150293 1.051634422449352 1.908089953765448 6
10.497227587395260 1.134802960573408 1.672284431280068 35
10.507212902243509 1.137737744525910 1.297664768578010 35
10.517707304155639 1.142588654558679 0.925593987980130 39
10.485434022712134 1.142786096561598 0.552772369837973 31
10.502000406627705 1.146446385560470 0.184402126416338 46
3.336302743660732 0.358314841181245 -0.058570276003523 52
3.379771194810004 0.364176715226749 -0.178151595050981 11
8.737686283868667 0.943044911860222 -0.768887962519840 3
3.430893820825331 0.370291042244821 -0.301907492877888 1
8.605161733399347 0.887739065267225 2.317983367938176 15
9.447675356822769 0.977988843968231 2.192822877743996 8
9.771731567595049 1.013257754697419 1.909616425728460 6
10.495804077247342 1.092042081148210 1.671345824489827 28
10.515644200295963 1.095961586513229 1.298152245951631 31
10.502393357708227 1.098286540112352 0.923850873125177 39
10.493909673964090 1.101102619666887 0.552981713662945 31
10.510495390839262 1.104697580317578 0.184471936042087 44
3.351637945232794 0.346358088922845 -0.058814609693645 41
3.365373852695126 0.348371208727167 -0.177314219751094 18
3.392718060441224 0.352398796883823 -0.298421263167982 2
8.604213668631356 0.858814697497311 2.316948091757766 15
9.458622686338805 0.947430747144882 2.194622486178747 8
9.755503474810864 0.978887826046518 1.905800245820929 6
10.499367709795642 1.057230736150369 1.671345824489827 28
10.521195790910662 1.061283655013365 1.298395984638441 33
10.496066361718007 1.062450052099352 0.922979315697700 35
10.505451500832086 1.067104849343119 0.553400401312888 31
10.494206679086073 1.067813157238530 0.184122887913341 44
3.388584001762446 0.338822970112802 -0.059442896325388 27
3.344650130914392 0.335019640549487 -0.176162828713749 27
3.383956004977088 0.340149862550677 -0.297549705740505 5
8.618551844580724 0.831390347056958 2.320053920298996 7
9.455893461836506 0.915496232408892 2.193272779852684 6
9.752833692481582 0.945963426934627 1.904655391848670 6
10.510680216542896 1.023173326911668 1.672597300210148 31
10.506875810559981 1.024654187729980 1.296202336457149 37
10.507463519805786 1.028414308257209 0.923676561639681 35
10.506944692590499 1.032066404196752 0.553295729400402 33
10.497689974410344 1.033007242622729 0.184122887913341 44
3.560865253858533 0.344126869086059 -0.062444710232600 23
3.327794749629750 0.322775126158623 -0.175220781501376 31
3.385065376430984 0.328926389792460 -0.297549705740505 5
8.640496746570616 0.804596805163374 2.325230301201046 12
9.447235669815964 0.883046160666870 2.190573367200557 6
9.752007592134236 0.913250558052769 1.903892155867164 6
10.517948804191507 0.988682768777329 1.673223038070309 31
10.516144958374383 0.990364869536045 1.296933552517579 41
10.524700920658651 0.994877151840455 0.924896742038148 39
10.506332718508055 0.996841139850390 0.553086385575430 33
10.505039273737083 0.998568429009614 0.184192697539090 42
3.677467688664554 0.343090545554603 -0.064469189379325 15
3.346743839052398 0.313413997046055 -0.176162828713749 33
3.405974298589364 0.319560455764959 -0.299292820595458 2
8.641463531160463 0.772750330699273 2.324712663110841 15
9.446526872084858 0.848065883378891 2.189673562983182 7
9.755289320409227 0.877501529307589 1.903892155867164 6
10.505762890038964 0.948704638131543 1.670720086629666 31
10.517727175780760 0.951635740475512 1.296689813830769 37
10.530260856325867 0.956475741283543 0.925071053523644 35
10.505937739877794 0.957964082059812 0.552877041750459 33
10.510620051729203 0.960240760809311 0.184227602351965 40
3.351848534579101 0.301503329988083 -0.176372172538721 27
3.415060054307343 0.307790164646612 -0.299990066537439 1
8.622806480419065 0.742267424499667 2.319018644118586 15
9.458994726591444 0.817574462698581 2.191923073526620 8
9.758145582451256 0.845146999352484 1.903892155867164 6
10.500979345130769 0.913176516520973 1.669468610909344 33
10.522802682283970 0.916924789757267 1.296933552517579 35
10.523450706470729 0.920682637990064 0.924199496096167 40
10.499108707981611 0.922246034286959 0.552353682188029 31
10.515738528302789 0.925556336924788 0.184262507164839 44
10.511361019486012 0.906685957434110 -0.184157792726216 24
3.498086059345256 0.302967086476870 -0.184013222150191 19
3.461715301583483 0.300425762068202 -0.303999230703832 1
3.716543092086565 0.333000326774381 -0.065132380823942 12
3.757472873910277 0.324111015110070 -0.065830477081433 3
8.627394436733068 0.710816902264075 2.319536282208791 15
9.514364544289796 0.787238754081553 2.204070430461189 21
9.753351497800503 0.808727002799202 1.902365683904152 6
10.516067153383299 0.875665895472306 1.671345824489827 31
10.528070917017907 0.878515703573575 1.297177291204390 37
10.518812769550905 0.881440589655921 0.923502250154186 40
10.518340189803295 0.885098472196278 0.553191057487916 31
10.507104487800285 0.885999857121855 0.184053078287592 42
10.510627759123532 0.867824707887414 -0.184087983100466 32
3.678311542403281 0.304997709732942 -0.193433694273920 12
9.602103066370336 0.797873236912851 -0.842970343855350 3
8.631629997554649 0.682355766605684 2.320053920298996 15
9.526635936863217 0.756454918942040 2.206319941004628 29
9.759893840234044 0.776690763210452 1.903128919885658 6
10.522851338095499 0.841103329582471 1.671971562349988 28
10.524990032573836 0.843122997234214 1.296446075143959 41
10.521677895876717 0.846554103043309 0.923502250154186 40
10.519226679081809 0.850052659653847 0.553086385575430 33
10.500018948158674 0.850345086188894 0.183878554223219 38
10.495506741397469 0.831543995884233 -0.183773839784595 30
10.420709129486845 0.829278336369812 -0.547852789951136 18
3.709167196834924 0.295174921791548 -0.195003772961209 10
8.626253824555857 0.651639517139223 2.317983367938176 15
9.496184830269916 0.720689143825665 2.198671605156937 18
9.760587937468316 0.742468733402052 1.902747301894905 6
10.525723227811884 0.804366599377642 1.671971562349988 28
10.525889664431723 0.806227185830686 1.296202336457149 37
10.530528371485126 0.810279998242623 0.924025184610672 35
10.510181915606974 0.812404990034335 0.552458354100515 33
10.480992303622262 0.811988954796428 0.183494601281599 27
10.458465674687204 0.791883200681470 -0.183075743527104 27
10.433636252744796 0.791834669646519 -0.548376149513565 24
3.357393815063134 0.255979720548630 -0.294586410487085 1
3.398449145135252 0.260303136154811 -0.418499325253276 1
8.643781989314901 0.624143296583167 2.322124472659816 15
9.465480788960351 0.686797253320071 2.191023269309245 7
9.772786795021148 0.710809466286233 1.904655391848670 6
10.512571752439374 0.768305737972964 1.669468610909344 31
10.532464908485064 0.771607723029140 1.296689813830769 37
10.531170443078542 0.775208786750232 0.923850873125177 39
10.518793614655960 0.777989459707959 0.552772369837973 31
10.483627327977095 0.777228267237081 0.183494601281599 23
