ply
format ascii 1.0
element vertex 824
property double x
property double y
property double z
property uchar intensity
end_header
-4.315514378997294 1.330924220713562 0.554505512493421 73
-3.189208140531994 0.982956733765130 0.291971738204655 1
-3.210708809893427 0.988356445568334 0.176058156801263 1
-4.324262123734233 1.356799479535296 1.214378959621027 68
-4.308379671814031 1.350990194318509 1.042423185829471 90
-4.320334653908809 1.353082763751309 0.880011086676625 44
-4.317321277155475 1.350484336831586 0.716469849884257 74
-4.317950872982644 1.349853958405321 0.555480467240662 73
-3.174172955534282 0.991076277050179 0.290925869291683 1
-3.207064736720647 1.000117643033393 0.176058156801263 1
-4.317658445872693 1.371300928635158 1.213861321530822 71
-4.315021063384022 1.368805310004053 1.045122598481597 90
-4.325181729316333 1.370366948769469 0.881919176630390 45
-4.316347350700028 1.366738989764450 0.717095587744418 71
-4.319128938005241 1.365961119594948 0.556211683301093 71
-3.204889738153951 1.012958260907279 0.294063476030599 1
-3.211172576394882 1.013711304061466 0.176476844451207 1
-4.318605117092960 1.387383897135075 1.215414235801437 68
-4.326915827412154 1.389220691529133 1.049171717459786 86
-4.314763460793618 1.383657786429286 0.880774322658131 44
-4.323078760046688 1.384660299636061 0.718972801324901 78
-4.321896904564651 1.383450106326528 0.557186638048334 77
-3.190126494727125 1.019940012725790 0.293017607117627 1
-3.226819390179495 1.030430010984193 0.177523563576065 1
-4.324513643317061 1.406788755129544 1.218520064342668 74
-4.322040181187277 1.404315982777784 1.049171717459786 86
-4.309907306767676 1.398710691893328 0.880774322658131 43
-4.321732717512945 1.401714757281560 0.719598539185062 69
-4.318929901585985 1.399139692911105 0.557430376735145 78
-3.194129307142236 1.033522885255685 0.293714853059608 1
-3.215419536842859 1.039791837346519 0.177104875926122 1
-4.330835384483733 1.424743854290747 1.221625892883898 74
-4.317111872266745 1.419394162879361 1.049171717459786 86
-4.316190142139249 1.417421805517247 0.883064030602649 43
-4.328074743020795 1.420487858799527 0.721475752765545 74
-4.321564970452561 1.416680518652460 0.558405331482386 78
-3.190502179291351 1.044666180666969 0.293714853059608 1
-3.223343690419387 1.054173831519404 0.177732907401037 1
-4.336833602813242 1.443513253158749 1.224731721425128 74
-4.319527411747960 1.436915519891633 1.050971325894537 86
-4.327984031583439 1.438050926712902 0.886498592519427 46
-4.323089946953726 1.435587004928306 0.721475752765545 71
-4.327898419474195 1.435506655502045 0.559867763603248 78
-3.217096935121212 1.065822116856399 0.296503836827533 1
-3.215852021003026 1.064164067888972 0.177523563576065 1
-4.318698603196655 1.455081099053235 1.221108254793693 74
-4.320026187518091 1.453849436600666 1.052321032220600 80
-4.332242574225239 1.456277392740563 0.888406682473193 49
-4.314560321019041 1.448657479288662 0.720850014905384 71
-4.332270997092806 1.453762702602398 0.561086457037299 77
-3.190687737350364 1.069447183681125 0.294412099001589 1
-3.257381904993576 1.091169224059870 0.180035689475727 1
-4.324564522359572 1.473886552660470 1.224214083334923 74
-4.325993627257705 1.472688357333718 1.055020444872727 80
-4.317839153824420 1.468230665516115 0.886498592519427 46
-4.322313999430971 1.468910721538848 0.723040097415947 76
-4.334688999427338 1.471428641703835 0.562061411784540 73
-3.183161477289299 1.079298698955117 0.294063476030599 1
-3.219694721764907 1.090432899274405 0.178151595050981 1
-4.328525261285606 1.492121055225077 1.226802273785948 71
-4.331882050074569 1.491586607354517 1.057719857524853 78
-4.320113832511955 1.485847892278959 0.888025064482439 45
-4.334232985249219 1.489012295513945 0.725855917786671 69
-4.320138821945789 1.483327342291677 0.560842718350489 71
-3.205759480541010 1.099452421739107 0.296503836827533 1
-3.272552723773280 1.121083391468519 0.181291752425557 1
-4.332411281811789 1.510401129393486 1.229390464236974 74
-4.322968361604619 1.505416859043590 1.056820053307478 78
-4.322318041027621 1.503498858068965 0.889551536445452 47
-4.340204669561196 1.508022518343062 0.727733131367154 71
-4.324310939756479 1.501654376241485 0.562061411784540 77
-3.220725790571350 1.117165224020450 0.298246951682486 1
-3.268619474935174 1.132499902241486 0.181291752425557 1
-4.338311115469065 1.528611642532383 1.232496292778204 74
-4.317687139112476 1.520497663158318 1.056820053307478 78
-4.331859625738680 1.523789166688064 0.892604480371477 47
-4.327459535954993 1.520544102839783 0.726481655646832 74
-4.334026512479735 1.522001780088260 0.564011321279023 73
-3.235607273972398 1.134995827567560 0.299990066537439 1
-3.358891387424074 1.176925206639425 0.186525348049852 1
-4.330859645199054 1.543853402360301 1.231978654687999 78
-4.327039908265983 1.540789603972862 1.060419270176980 78
-4.337612586848383 1.542848481910242 0.894894188315995 46
-4.327709623615941 1.537624523561573 0.727420262437074 68
-4.341781890211727 1.541770974229514 0.565717492086695 68
-3.224114645064713 1.143619063770473 0.299292820595458 1
-4.329351285944241 1.559515979134996 1.233013930868409 78
-4.330802847604447 1.559184965827785 1.062668780720418 86
-4.328505773781987 1.556651408123677 0.894130952334489 48
-4.337188431485912 1.558064379808231 0.729923213877717 68
-4.345715259877106 1.560271207713084 0.566936185520746 73
-3.190096242973080 1.144104643516313 0.296503836827533 1
-4.318160946747947 1.573389272424595 1.231461016597794 73
-4.330827541822656 1.576292314963710 1.064018487046481 80
-4.315665315934657 1.569067915183846 0.892604480371477 48
-4.331448708004769 1.573950504865464 0.729923213877717 68
-4.332778547925688 1.572721825338576 0.565961230773505 73
-3.186083137322033 1.155233187204534 0.296503836827533 1
-4.327422959940884 1.593039209676708 1.235602121319434 73
-4.328956627968733 1.592745913853571 1.064918291263857 82
-4.332274798856911 1.592250019149037 0.897183896260514 47
-4.341040308044868 1.593751849030068 0.732426165318361 66
-4.336580291158839 1.591255577180683 0.567179924207556 71
-3.182031210253422 1.166347654740942 0.296503836827533 1
-4.329078140044029 1.610829851417617 1.237672673680254 73
-4.323651090110831 1.607092493889226 1.064918291263857 80
-4.334332811296302 1.609341093419238 0.898710368223526 46
-4.335450628794434 1.608895197843225 0.732426165318361 65
-4.342447542611685 1.609767439804585 0.568642356328418 68
-3.271354400355009 1.212058372506988 0.305219411102299 1
-4.314387872805844 1.622531233065252 1.235084483229229 68
-4.328676581221976 1.627042560434606 1.067617703915983 82
-4.332081096401566 1.626596633938058 0.899473604205032 48
-4.340905453109099 1.628181315119857 0.734303378898844 66
-4.340235829366953 1.627066125844200 0.569129833702039 68
-3.218591493205482 1.205303256437653 0.300687312479421 1
-4.335785268657865 1.647876309561285 1.242849054582305 74
-4.336010284550465 1.646229875803071 1.070767018676797 86
-4.341348611329435 1.646523022865647 0.902526548131057 48
-4.338889837636778 1.644724344743559 0.734929116759005 65
-4.340385776852152 1.643558849589255 0.569861049762470 66
-3.206910991875390 1.213709953064432 0.299990066537439 1
-4.337511029832448 1.665014485922101 1.244919606943125 68
-4.341154018454921 1.665543637633863 1.073466431328924 86
-4.335574724428078 1.661667126358055 0.902526548131057 48
-4.342635828833020 1.662635089079065 0.736493461409407 69
-4.330914268167692 1.657280705507268 0.569373572388849 66
-3.214034857182685 1.228606243831676 0.301035935450411 1
-4.344280397992076 1.685035316262187 1.248543073574560 71
-4.328338596838205 1.677113953143490 1.071666822894173 86
-4.337364135101988 1.678870005804434 0.904053020094069 48
-4.349701886130758 1.682772748689605 0.738683543919970 68
-4.334652836713348 1.675211404974313 0.570592265822901 68
-3.239463540024478 1.251304276071191 0.303824919218336 1
-4.347365368820407 1.703713858063834 1.251131264025585 68
-4.333049653732279 1.697231242408838 1.074366235546299 86
-4.338494732581393 1.697617518444350 0.905579492057082 48
-4.341961598944803 1.697226625882255 0.738370674989890 69
-4.339577700274427 1.695421719172368 0.572054697943762 68
-3.261060482741086 1.272745892219514 0.306265280015271 1
-4.330614670548332 1.714611643380402 1.248025435484355 68
-4.331021893637399 1.713024314061087 1.075266039763675 86
-4.347448510358773 1.717766732143426 0.908632435983106 48
-4.339685305060973 1.713823723383654 0.738996412850051 69
-4.348704287269747 1.715631001270782 0.574004607438245 68
-3.219527921173536 1.269504159693930 0.302779050305365 1
-4.333571659797534 1.733305001442162 1.250613625935380 65
-4.344618797620776 1.736844016358168 1.080214962959240 78
-4.337476908870771 1.732233119617943 0.907869200001600 46
-4.341015499935578 1.731889572919178 0.740247888570372 69
-4.346074778004006 1.733028813518675 0.574492084811865 68
-3.240990022906303 1.291057234404491 0.305219411102299 1
-4.341824347933202 1.754210904534642 1.254754730657021 65
-4.346063707505874 1.754159262322374 1.082014571393991 78
-4.335350389416973 1.748075541062661 0.908632435983106 46
-4.344104542346616 1.750723946202686 0.741812233220775 76
-4.340303951165462 1.747431388062487 0.574492084811865 71
-3.328881226790040 1.339551642483834 0.313934985377065 1
-4.337463201896286 1.770085944934696 1.255272368747226 63
-4.335996381443949 1.768604602588614 1.081114767176615 78
-4.336186683056873 1.766917035960255 0.910158907946119 46
-4.358092441399927 1.774069631818252 0.745253791451660 71
-4.335708864989466 1.764075783870708 0.574735823498675 66
-3.324185038269830 1.351163445442226 0.313934985377065 1
-4.347332795623651 1.791841275956266 1.259931111559071 60
-4.337315472717372 1.785941473067000 1.082914375611366 78
-4.352091223924172 1.790249082543952 0.914738323835156 100
-4.344565300198940 1.786266751214307 0.744002315731338 74
-4.348197460037285 1.785985983640469 0.577173210366778 77
-3.253096240972250 1.335518742559284 0.307659771899233 1
-4.335701101347967 1.804778178159047 1.258378197288456 56
-4.341535901945651 1.806317999370310 1.085613788263493 78
-4.356377748553514 1.810709391602669 0.917028031779674 100
-4.345600995874873 1.804451376728738 0.745253791451660 71
-4.356289931037534 1.807998464817698 0.579123119861261 77
-3.314671206507588 1.374337519572914 0.313934985377065 1
-4.336498446682771 1.822896094522529 1.260448749649276 63
-4.346302475631521 1.825232359737279 1.088313200915619 78
-4.344918119336732 1.822867121012595 0.915883177807415 100
-4.352027670298281 1.824956660371544 0.747443873962223 76
-4.364917814927830 1.828570644924879 0.581073029355743 73
-4.339000326529834 1.841796366137165 1.263036940100301 60
-4.355729089872751 1.848000177952510 1.092362319893808 75
-4.343630553114005 1.841078272910962 0.917028031779674 100
-4.356544968837861 1.844758478028313 0.749321087542706 76
-4.354530253482763 1.843009139514223 0.580585551982123 73
-4.350301154003819 1.864541456204509 1.268213321002352 65
-4.344202679811393 1.860132939807150 1.091012613567745 71
-4.342916542703878 1.857788592649596 0.918172885751934 100
-4.355527969236825 1.862284215756331 0.750259694332947 74
-4.352045717314240 1.858998711393345 0.581073029355743 77
-4.350858049368786 1.882784404895129 1.270283873363172 65
-4.349875974828764 1.881458125551519 1.094161928328559 75
-4.350495786838027 1.879923769581823 0.921225829677958 100
-4.352628038869044 1.879042368593958 0.750885432193108 74
-4.350670871264021 1.877296670734404 0.581804245416174 71
-4.411232210204073 1.901602409693742 0.420264991529208 1
-4.358475867228923 1.877056257536308 0.248700464066469 1
-4.417386196956637 1.901513145743470 0.083946074963334 1
-4.347799952112065 1.899507093016003 1.271319149543582 71
-4.356115093092719 1.901329359032639 1.097311243089373 71
-4.360434227192846 1.901402774411828 0.924660391594736 100
-4.346042439266323 1.894224428048642 0.750885432193108 69
-4.357161849024542 1.897261240726567 0.583510416223846 77
-4.380818280950662 1.906652583349497 0.417998942217769 7
-4.357391984473155 1.894647957404508 0.249014479803927 9
-4.376208002300116 1.901013277680419 0.083282883518717 10
-4.352083268219890 1.918590159912744 1.274424978084812 71
-4.360151434251818 1.921238149643863 1.100010655741500 71
-4.355567378878851 1.917402954140953 0.925042009585489 100
-4.359627530249566 1.917373878253263 0.754326990423993 76
-4.361416166484712 1.917252145500241 0.584972848344708 73
-4.341635606367610 1.906748628908819 0.414861335478853 22
-4.362058880045547 1.913902020370474 0.249642511278842 41
-4.369545566255291 1.916277512713527 0.083282883518717 12
-4.357714424289217 1.939268204581327 1.278048444716247 68
-4.364440470163675 1.940436519822486 1.102710068393626 68
-4.352773529709073 1.933429917619115 0.925805245566996 100
-4.365546143552647 1.938191112060715 0.756517072934557 71
-4.355034348710276 1.931704580999161 0.584972848344708 73
-4.360453086489754 1.933197396751644 0.417301696275787 43
-4.364482256111075 1.933161057221517 0.250165870841272 48
-4.368652895885109 1.933184518813856 0.083387597957341 15
-4.370302974654193 1.963175284227145 1.283742463708503 71
-4.350188044441073 1.953227108442612 1.100910459958875 70
-4.354614344121284 1.953388307805209 0.927713335520761 100
-4.369569764346751 1.958265094589601 0.758394286515039 71
-4.355171587307303 1.950899694285410 0.585947803091949 73
-4.371864194045078 1.956545147726212 0.419044811130740 58
-4.352237748859711 1.945938495405684 0.249851855103814 56
-4.368840777863690 1.952447044521502 0.083527217208839 16
-4.363423588688691 1.978418528154932 1.283742463708503 65
-4.350787419391519 1.970858527730445 1.102710068393626 70
-4.353478564161410 1.970246394540251 0.928858189493020 100
-4.362707522608624 1.973505809050346 0.758394286515039 74
-4.363149699531977 1.971871440791629 0.587897712586431 77
-4.374086577550275 1.975894950525306 0.419916368558217 63
-4.352700448100093 1.964405117214622 0.250270542753757 56
-4.371457006536987 1.971033652301887 0.083701741273212 18
-4.352977736561369 1.992029893366271 1.282707187528093 71
-4.354167526114725 1.991655350140213 1.105409481045753 65
-4.365869959394922 1.995165662807532 0.933055987391304 100
-4.359386010546103 1.990363337095114 0.759020024375200 71
-4.368534603847515 1.993618989594907 0.589603883394104 71
-4.363537062702592 1.989498230530421 0.419567745587226 63
-4.356722314039024 1.984554505123119 0.250898574228673 57
-4.366023379545549 1.987871229069912 0.083736646086086 18
-4.354766898878651 2.011262550682118 1.285295377979118 68
-4.365233519776817 2.014248106542640 1.109908502132630 68
-4.355663914494324 2.007988568105091 0.932292751409798 100
-4.366764340371472 2.012181888638471 0.761522975815844 69
-4.370915419997763 2.012245281752678 0.590822576828155 77
-4.363805660622012 2.008049175996005 0.420264991529208 63
-4.357027070735383 2.003087301832071 0.251317261878616 57
-4.361224532007251 2.003173209854333 0.083771550898961 19
-4.358225719665871 2.031348051782316 1.288401206520348 68
-4.361354502436384 2.031879871109931 1.110808306350005 70
-4.351834795394060 2.025596316641294 0.933055987391304 100
-4.368669773585976 2.031577256886851 0.763087320466246 68
-4.358110429086432 2.025741758920758 0.590091360767724 71
-4.363997828880400 2.026626197440071 0.420962237471189 63
-4.360878938455710 2.023327569448505 0.251945293353532 60
-4.362923769250754 2.023350992834671 0.083946074963334 22
-4.366841656448037 2.053948858891864 1.293059949332194 65
-4.359883686743798 2.048817901353297 1.112158012676069 75
-4.355756554826266 2.045022558629798 0.935345695335823 100
-4.372281154433182 2.051849596885481 0.764964534046729 66
-4.362152926588544 2.045238850397216 0.591553792888586 68
-4.371329781388940 2.048610928290326 0.422356729355152 63
-4.355598442585070 2.039384471344211 0.252049965266017 61
-4.377925774622527 2.047975700545119 0.084364932717829 24
-4.373607467675736 2.075806143177312 1.297201054053834 70
-4.355866424062502 2.066454449528795 1.113057816893444 75
-4.358876302253772 2.066018691146281 0.937635403280341 100
-4.361521597713801 2.065408327019170 0.764338796186568 68
-4.368981394709982 2.068007477727199 0.593503702383068 73
-4.383964657459410 2.073226790043864 0.424274155695600 66
-4.359288142593671 2.059695297806258 0.252677996740933 59
-4.374006538569985 2.065715753639014 0.084434742343578 24
-4.361107849559810 2.088556971304374 1.295648139783219 73
-4.357779253510233 2.085093173707448 1.115307327436883 70
-4.369713833279070 2.088929374527198 0.941451583187872 100
-4.368544219594191 2.087433624225268 0.766841747627212 66
-4.374639529393185 2.088470778997597 0.595209873190740 71
-4.373104733582882 2.086800932484732 0.423925532724609 69
-4.370100372897189 2.083494780258083 0.253724715865792 60
-4.374353713089455 2.083648907599667 0.084574361595076 24
-4.368074571772313 2.109729000441909 1.299789244504859 73
-4.361003958011427 2.105375360196897 1.118006740089009 70
-4.357090587954731 2.101611016184521 0.940306729215613 100
-4.370495609288100 2.106196621055140 0.768406092277614 69
-4.372688015480453 2.106312829903416 0.595941089251171 65
-4.373341792711542 2.104747267478940 0.424622778666591 69
-4.370367172850036 2.101437104679609 0.254143403515735 61
-4.368856104397949 2.099771799768414 0.084609266407950 25
-4.367630160528443 2.128348620444297 1.301859796865679 68
-4.368015199389288 2.126649781985586 1.121605956958511 78
-4.355393822785114 2.118624451137652 0.941451583187872 100
-4.377329091958621 2.128349892993658 0.770909043718258 69
-4.367464741767217 2.121669008200097 0.596184827937981 63
-4.380306364829186 2.126962490367328 0.426017270550553 66
-4.380974706177786 2.125397521673804 0.255190122640594 69
-4.367267341440188 2.116864546880381 0.084713980846574 24
-4.374043569788509 2.150400077809920 1.306000901587320 68
-4.363689246465528 2.144364002777527 1.122505761175886 78
-4.361697838910014 2.141495542911326 0.944504527113897 100
-4.380514020953014 2.148836502101606 0.772786257298741 71
-4.375700364763880 2.145527794535048 0.598378476119274 75
-4.388958179451529 2.150128426028358 0.427586073920011 72
-4.366353392611155 2.137164843138185 0.254771434990651 67
-4.368460520879899 2.137251183002997 0.084888504910947 24
-4.373433352445904 2.169088698758026 1.308071453948140 68
-4.358300400076426 2.159687986953386 1.122955663284574 75
-4.372166633609699 2.164658579218536 0.948320707021428 100
-4.372986494185399 2.164114258120928 0.772786257298741 69
-4.379238207784560 2.165305429790799 0.599840908240136 84
-4.392142991929439 2.170732271844766 0.428631942832983 72
-4.366029991579064 2.155930452018060 0.255190122640594 67
-4.379282300227342 2.160573325408635 0.085237553039693 29
-4.364488522473163 2.182715500434122 1.307553815857935 64
-4.366422876753424 2.182730281578835 1.127004782262764 78
-4.380391274560688 2.187802136803271 0.951755268938206 100
-4.371088562602774 2.181249782251842 0.773724864088982 76
-4.382311437671718 2.185894955418111 0.601303340360998 73
-4.388486860548205 2.187062584600233 0.428980565803973 72
-4.369583955502640 2.175738294887239 0.255818154115509 69
-4.382455123381821 2.181192771129070 0.085446981916940 29
-4.368916428115549 2.204027989392573 1.311177282489370 61
-4.373082145441330 2.204214859392883 1.130603999132265 71
-4.371358723194374 2.201432962739354 0.951373650947452 100
-4.375798995347430 2.202711771421728 0.775914946599545 71
-4.385679201348855 2.205766843159180 0.602765772481859 76
-4.391506450671961 2.207737384552609 0.430026434716945 72
-4.379810227984516 2.199942454642266 0.256864873240368 66
-4.369836169101611 2.193022697692163 0.085342267478316 24
-4.366361571986750 2.221893348743789 1.312730196759985 57
-4.380606537481358 2.228179675281554 1.134653118110455 75
-4.366761116173954 2.219218939812030 0.952136886928959 100
-4.385696677187688 2.226916179174250 0.779043635900350 74
-4.377565203962382 2.221826345280416 0.602765772481859 73
-4.392658080701027 2.227558732428367 0.430897992144422 69
-4.382794054034292 2.220633622177000 0.257492904715284 66
-4.370688760738980 2.213541649735600 0.085516791542689 21
-4.370609893771107 2.243296277656187 1.316353663391421 61
-4.369725505231562 2.240915534366530 1.133753313893080 75
-4.371608630625961 2.239954298034590 0.954808212864230 100
-4.381412952697361 2.244012523484593 0.779669373760511 71
-4.370173292951643 2.236330658265127 0.602765772481859 76
-4.406141395306649 2.253766158745262 0.432989729970366 69
-4.371458971165544 2.234101079340835 0.257283560890312 67
-4.374010052889338 2.233479588524492 0.085726220419937 17
-4.374761851373845 2.264755863218090 1.319977130022856 64
-4.370136524301339 2.261394335767131 1.136002824436518 71
-4.380808950539733 2.264978633995018 0.958624392771761 100
-4.373553194139411 2.259292837516389 0.779669373760511 74
-4.376058004106581 2.259619279583755 0.604715681976342 76
-4.407100594625401 2.273700229174885 0.433861287397842 72
-4.377836096426345 2.256667608472025 0.258120936190199 69
-4.388903409028043 2.261403077019735 0.086179982987306 17
-4.366829725568484 2.280012834198110 1.319977130022856 64
-4.379891118948959 2.284887158375609 1.140501845523396 71
-4.383719641517912 2.284938116364358 0.960914100716280 100
-4.376151317315236 2.280022056861685 0.781546587340993 69
-4.386148759275201 2.283284522897089 0.607153068844445 76
-4.395602187100189 2.287230679783213 0.433512664426852 72
-4.377020477440662 2.275620575352956 0.258539623840143 69
-4.390252977401028 2.280553812900119 0.086354507051679 14
-1.096675966060564 0.569677549059124 0.021571174356482 3
-4.370809846512865 2.301542688320724 1.323600596654291 61
-4.388731695313381 2.310001541560841 1.145000866610273 68
-4.378790710793976 2.302817537527939 0.961677336697786 100
-4.382155216403244 2.302634573719013 0.784049538781637 77
-4.384780350211825 2.303037469803463 0.608128023591686 73
-4.392884114040818 2.305337775578623 0.434035598883338 69
-4.386738876162520 2.300160203748958 0.259586342965001 67
-4.387178339537389 2.299414495064614 0.086459221490303 13
-4.376398922082709 2.324034089513459 1.327741701375931 68
-4.384490189683537 2.326369151524662 1.145900670827648 68
-4.367661065607426 2.315486321924971 0.960914100716280 100
-4.388054402230615 2.325316697396217 0.786552490222281 75
-4.380627806436420 2.319423030294557 0.608615500965306 73
-4.398897964198998 2.328113686360761 0.435430090767300 69
-4.385745485263415 2.319193377566108 0.260005030614945 69
-4.393673707700096 2.321423655824777 0.086738459993299 11
-4.381884068992472 2.346592464986548 1.331882806097572 64
-4.379370318484859 2.344262844480186 1.146800475045024 70
-4.379919368367259 2.342590146823480 0.965493516605317 100
-4.397332878230202 2.349930039967727 0.789681179523085 77
-4.379101032376649 2.339204485405655 0.609590455712548 73
-4.401290755127298 2.349083315987786 0.436475959680272 71
-4.377623270155497 2.334488356931346 0.260005030614945 66
-4.390429679669281 2.340333628125205 0.086843174431923 9
-4.383865225250220 2.367381471632121 1.334988634638802 64
-4.375002412818236 2.360623213648385 1.147700279262399 68
-4.384223771223311 2.363623227485466 0.968164842540588 100
-4.389103301553808 2.365265279624358 0.789681179523085 75
-4.395789476429258 2.366888769964057 0.613002797327892 73
-4.403590621402004 2.370097949158378 0.437521828593244 65
-4.380001936623557 2.355430627745073 0.260633062089860 66
-4.407305897693453 2.368130881848004 0.087331841812167 6
-4.380664664259429 2.385441214397798 1.336541548909417 68
-4.383437025071392 2.385959056544748 1.152199300349277 68
-4.385879333731875 2.385304264739909 0.970454550485107 100
-4.386027242160480 2.383401221891943 0.790619786313327 71
-4.394062340716840 2.386774280456953 0.613977752075133 73
-4.393539495664736 2.384504529103213 0.437347517107749 61
-4.385799058520845 2.378322061590669 0.261470437389747 64
-4.412660919003190 2.391892119747030 0.087611080315163 6
-4.379084758308509 2.404437215209203 1.338612101270237 68
-4.385751873759896 2.406105871427786 1.154898713001403 68
-4.384831533294042 2.403610059188247 0.971981022448119 100
-4.391539800857935 2.406290610117221 0.793122737753971 73
-4.396570648525302 2.407052120790614 0.615440184195995 76
-4.393928173012466 2.404608752608380 0.438219074535225 65
-4.391489566184024 2.401282574271264 0.262307812689634 66
-4.420498619027125 2.415140806294472 0.087925223631034 4
-4.382495907068335 2.426258293090199 1.342235567901673 64
-4.392249187746222 2.430656494754547 1.158947831979593 75
-4.377710506710186 2.420615131514714 0.972362640438872 100
-4.393487757564772 2.427336894933762 0.794999951334453 73
-4.391194251416353 2.425069516950259 0.615927661569615 73
-4.392485489829815 2.423782103501321 0.438916320477207 65
-4.393574979063084 2.422383050882805 0.262935844164550 63
-4.425627686940925 2.439048082642400 0.088204462134031 4
-4.387494779089481 2.449073992119945 1.346376672623313 64
-4.375655053833906 2.440462219138944 1.156698321436154 71
-4.386808757182686 2.444675814625001 0.976178820346403 100
-4.398793554549466 2.450348625097940 0.797502902775097 73
-4.391800879397304 2.444445011087537 0.617146355003667 71
-4.404890914104233 2.450723959844043 0.441008058303150 65
-4.385092517076011 2.437704731614854 0.262935844164550 61
-4.438492694114056 2.465362551729072 0.088623319888526 3
-4.396186408189405 2.473081763297972 1.351553053525363 64
-4.377301213933928 2.461452208896918 1.159397734088280 71
-4.388518063200054 2.465743812343659 0.978468528290922 100
-4.390643719629521 2.464922077336956 0.797502902775097 73
-4.391897107609213 2.464617711338705 0.618365048437718 65
-4.412380377371274 2.474087534203460 0.442576861672608 68
-4.390924127826408 2.460042477756281 0.263773219464437 67
-4.435094110747665 2.483772043633600 0.088728034327149 3
-4.382485755820392 2.485553102237715 1.350000139254748 61
-4.384373516921529 2.484601433672384 1.163446853066470 75
-4.397401153061166 2.489956596227294 0.982284708198453 100
-4.383731897135686 2.481206288975916 0.797815771705177 68
-4.394067434456128 2.485031443623311 0.619827480558580 65
-4.401982888665231 2.488494048915217 0.442402550187113 74
-4.389266274035385 2.479283810262714 0.264191907114380 63
-4.440765052113143 2.506328681022083 0.089007272830146 1
-4.393907624509344 2.512342602185152 1.356211796337209 61
-4.389210429245281 2.507624229913934 1.167046069935971 75
-4.384835799286088 2.504109944246902 0.981521472216947 100
-4.399064014007229 2.510199490033892 0.802195936726304 77
-4.398724334668702 2.508988063903889 0.621777390053062 65
-4.403655585159126 2.509763930511089 0.443448419100085 71
-4.394469798303494 2.502496887362983 0.265029282414268 67
-4.424597620997657 2.518631063178826 0.088867653578648 3
-4.397269361314908 2.533650769468472 1.359835262968644 57
-4.389314952343391 2.527027125815246 1.169295580479410 71
-4.381612553476225 2.521574572086529 0.982666326189206 100
-4.404415285962616 2.532651118524170 0.804698888166948 77
-4.390380044742798 2.523560964181969 0.621777390053062 65
-4.412585852074113 2.534275951069682 0.445191533955038 74
-4.406934484099377 2.528984888784446 0.266285345364098 64
-4.430097790300010 2.541249771276162 0.089146892081644 3
-4.396305174983251 2.554603519528522 1.362423453419669 56
-4.386764543084714 2.547011759304787 1.171095188914161 67
-4.391019052153648 2.548457353814796 0.986864124087490 100
-4.401938380011034 2.552740979718825 0.805950363887269 75
-4.401710107214674 2.551582102446087 0.624702254294786 71
-4.417060165487086 2.558420687844852 0.446586025839000 74
-4.394178429824029 2.543119243817361 0.266076001539126 67
-4.429408457246820 2.562476615208034 0.089321416146017 4
-4.404480641297101 2.578929423928131 1.367599834321719 54
-4.385022301911083 2.565481086676394 1.172894797348912 61
-4.402880550429956 2.574897777715537 0.991443539976527 100
-4.393448982515855 2.567324297586961 0.805950363887269 75
-4.410365500317484 2.576177017227541 0.627139641162889 80
-4.422317820124413 2.581088637290615 0.447980517722963 74
-4.389171588416414 2.559689215956197 0.266285345364098 66
-4.426069375205964 2.580172252589456 0.089426130584641 6
-4.401652856552541 2.598984255867617 1.369670386682540 54
-4.404122697436358 2.598369715146066 1.180543133196604 64
-4.403559956509599 2.597001721486042 0.993733247921045 100
-4.401028430048361 2.593438613809539 0.809079053188074 75
-4.421418676938387 2.604414637159306 0.630064505404612 80
-4.416262060857137 2.599301135197403 0.448329140693954 74
-4.400419624291618 2.587908948357075 0.267541408313929 67
-4.426926127445742 2.602457786135676 0.089635559461888 11
-4.389689621004845 2.611590887858043 1.368635110502130 56
-4.408882837279481 2.620926367130972 1.184142350066105 64
-4.398299293682769 2.613596002961269 0.994496483902552 100
-4.399198207844663 2.612052748704616 0.810330528908396 80
-4.421293131235964 2.624128154368553 0.631283198838664 84
-4.417900343075043 2.620029514986080 0.449375009606926 71
-4.402123035589474 2.608596160983116 0.268169439788844 66
-4.407948660908513 2.611008918016848 0.089426130584641 26
-4.530570859412321 2.694335913690358 -0.092009086737359 1
-4.393341091504201 2.635612929968393 1.372776215223770 56
-4.407604280551169 2.642077754182575 1.186391860609544 61
-4.398794872197521 2.635753584854209 0.996786191847070 100
-4.409932899294905 2.640335870304758 0.814084956069361 75
-4.398018819458042 2.632159963721072 0.629333289344182 76
-4.421947432433811 2.644384949533196 0.450769501490888 71
-4.406248432924841 2.632909052888685 0.269006815088731 64
-4.405216283268964 2.631249033078827 0.089565749836139 48
-4.424626782865121 2.653331497248782 -0.090054417216383 4
-4.412683190348424 2.667155534353521 1.381576062757256 64
-4.398818600482983 2.656679369650082 1.186391860609544 60
-4.405156656337527 2.659458079546519 1.000220753763848 100
-4.411301682909023 2.661067304685161 0.815962169649844 75
-4.397765821339787 2.651855195456575 0.630551982778233 78
-4.426806471205646 2.667260052860823 0.452163993374851 71
-4.397493164820728 2.647506222616065 0.269006815088731 66
-4.411886712231046 2.655122830161747 0.089879893152010 64
-4.431207656806617 2.677296439605771 -0.090368560532254 11
-4.408764281335512 2.684788212229412 1.383128977027871 61
-4.406632195149040 2.681381659624060 1.190890881696421 58
-4.408054748417870 2.681193169360881 1.002892079699120 100
-4.402453010892526 2.675681076769736 0.815962169649844 75
-4.409306246600650 2.678792546648236 0.633476847019957 78
-4.426452862660156 2.687094684665381 0.453035550802327 78
-4.398935506691948 2.668289237973172 0.269634846563647 68
-4.409897450944330 2.673885741676586 0.090019512403508 66
-4.427429397169585 2.695095456490292 -0.090473274970878 12
-4.401483607475998 2.700403691597308 1.383646615118076 57
-4.407684562181609 2.702090858861496 1.193590294348548 57
-4.405835152586028 2.699899253919337 1.004418551662132 100
-4.408717737610541 2.699549316670484 0.818777990020568 71
-4.412250592470467 2.700653854737293 0.635183017827629 76
-4.419217496472124 2.702798094493872 0.453209862287822 71
-4.410513557697473 2.695359766804747 0.270890909513477 68
-4.416364579494992 2.697876893341578 0.090333655719379 64
-4.408239860348872 2.703489924471654 -0.090263846093630 13
-4.401414159759366 2.722615480429564 1.386752443659306 64
-4.414327820578815 2.728473544805479 1.198089315435425 57
-4.402590648179450 2.720157016425094 1.005945023625144 100
-4.415602317901000 2.726067053583649 0.821906679321373 71
-4.417526288400476 2.726190102857477 0.637376666008921 70
-4.399106298065809 2.712702619420905 0.452163993374851 45
-4.414208052211875 2.719888786516874 0.271728284813364 66
-4.404744056943562 2.712996853740361 0.090298750906505 66
-4.425514467243959 2.736455555246825 -0.090822323099623 20
-4.413675624926224 2.750478525906708 1.393481738831972 61
-4.415181077411850 2.749277447650967 1.200788728087551 60
-4.396879570259982 2.736816494518795 1.006708259606650 100
-4.419957300504037 2.749040964123290 0.824409630762017 70
-4.408461627178006 2.740824158410459 0.637376666008921 74
-4.405318067228023 2.736738072178802 0.453732796744308 43
-4.413648828081993 2.739778652465402 0.272251644375794 63
-4.407617326371461 2.734969004230546 0.090543084596627 61
-4.419810352239858 2.753230660595298 -0.090892132725373 19
-4.413863630395314 2.772033011876321 1.396587567373202 61
-4.408375733726704 2.767513696735102 1.201688532304927 61
-4.405593784521092 2.763623771190455 1.010906057504934 100
-4.427071940943746 2.774944028000598 0.827538320062821 70
-4.405596176821398 2.760411841565433 0.638351620756163 74
-4.410936710139745 2.761614345283465 0.455301600113766 35
-4.409137978441207 2.758346288629189 0.272565660113251 63
-4.411607393179147 2.758819949557034 0.090822323099623 64
-4.427109004424181 2.779274169610241 -0.091241180854118 21
-4.417219576592108 2.795688537613384 1.400728672094842 68
-4.405762144384584 2.786283586106538 1.203488140739678 57
-4.411341877904372 2.787657070738492 1.014340619421712 100
-4.417358607407989 2.790380487027918 0.827538320062821 70
-4.419919378220356 2.789840086211647 0.641763962371507 74
-4.416435176477359 2.786563074181971 0.456870403483224 35
-4.406240729015645 2.777980954549540 0.272984347763195 63
-4.422737870837024 2.786224824521586 0.091241180854118 64
-4.420760341841751 2.796848995390491 -0.091310990479867 21
-4.499071288595228 2.844194802892718 -0.278950646774891 1
-4.403686032032727 2.809781437890388 1.399693395914432 61
-4.404889145382964 2.809467423361595 1.206187553391804 58
-4.427095275135146 2.821457132523698 1.020446507273762 100
-4.418765088213180 2.813979721524551 0.829728402573385 68
-4.422571261760797 2.815318789376223 0.643713871865989 70
-4.419641136874280 2.811286094819009 0.458264895367187 66
-4.409514076487792 2.802682870614294 0.273821723063082 63
-4.417070470763659 2.806403460609482 0.091345895292742 66
-4.417223537162734 2.817334379997396 -0.091450609731366 22
-4.488117225427283 2.861448987399003 -0.278950646774891 1
-4.410100685554030 2.835584040980532 1.404869776816483 56
-4.416862133191366 2.837752799380739 1.212036280804745 70
-4.411106245574477 2.831879879496335 1.018920035310749 100
-4.427202902375062 2.841122714283078 0.833169960804270 73
-4.421566200767737 2.835326845082216 0.644932565300040 66
-4.424897304899691 2.836373179008295 0.459833698736644 74
-4.396340335199126 2.815903393767068 0.273612379238110 52
-4.412792630957188 2.824269459904580 0.091450609731366 61
-4.424184287171975 2.843548173665668 -0.091799657860111 21
-4.478603641447166 2.876316387235600 -0.278950646774891 1
-4.418009950874877 2.862516000291389 1.410563795808738 64
-4.419516753767025 2.862397247058289 1.215635497674247 64
-4.410586465725201 2.854428434668173 1.021209743255268 100
-4.427211077789626 2.862995335177628 0.835047174384752 71
-4.421147104838091 2.857979668348080 0.646394997420902 72
-4.430032000381926 2.861531094823599 0.461402502106102 78
-4.430114125868423 2.859393018753892 0.276333848962743 68
-4.412493384497324 2.846928971556828 0.091660038608613 56
-4.420945158143749 2.863322384575222 -0.091939277111610 22
-4.481443809762918 2.901395533642579 -0.279788022074778 1
-4.422549491668896 2.887425351402095 1.415222538620583 54
-4.408368277931959 2.875972373729136 1.215185595565559 60
-4.424121758028219 2.884048690678221 1.026552395125811 100
-4.423810380072719 2.882745616420794 0.836298650105074 73
-4.419962975572254 2.878040966002341 0.647613690854954 68
-4.423356045708744 2.879151123401123 0.461751125077093 55
-4.420105991809546 2.874839582496174 0.276333848962743 68
-4.411411893403840 2.866994161109125 0.091834562672986 52
-4.424320245793907 2.887480235090100 -0.092218515614606 22
-4.455068285807648 2.905330593034239 -0.278741302949919 1
-4.422127042468752 2.909215884593421 1.418328367161814 54
-4.404310545771311 2.896393555726145 1.216985204000310 61
-4.429928618212922 2.911026114125725 1.030368575033342 100
-4.420325663168777 2.902506988494839 0.837550125825396 73
-4.432618231363272 2.909471553397958 0.651026032470298 76
-4.424941103037413 2.902222907523870 0.462971305475560 42
-4.423407769851496 2.899009453944256 0.277171224262631 68
-4.414255805435678 2.891910221948519 0.092113801175982 49
-4.415884889402729 2.904005156669677 -0.092253420427481 23
-4.472761789454260 2.940290818504880 -0.280520725462179 1
-4.416775639574968 2.927836418978174 1.419881281432429 57
-4.419051310480597 2.927125084382153 1.223733735630626 64
-4.430073730386757 2.932201837175329 1.032658282977861 100
-4.420051666142814 2.924459097078657 0.839427339405879 70
-4.437848927979724 2.934007658687796 0.653219680651591 72
-4.426594505464787 2.923237298400225 0.278008599562518 68
-4.429677470565142 2.923053168148481 0.092637373369101 56
-4.424057451186256 2.931552146160569 -0.092637373369101 27
-4.462986840969910 2.955106864381659 -0.280520725462179 1
-4.416682202149831 2.948903187638030 1.422987109973659 57
-4.423394778514841 2.952268940211285 1.227782854608815 60
-4.423078121495580 2.949826417825098 1.033421518959367 100
-4.420192338905085 2.945673155020633 0.841304552986362 73
-4.437492786292811 2.956084082500878 0.654682112772452 72
-4.433279133314904 2.951043387339159 0.465934600728981 11
-4.433506167915491 2.948961713581168 0.279055318687376 66
-4.429438338072349 2.945140995016621 0.092846802246348 56
-4.407658679272094 2.941766328674080 -0.092497754117603 22
-4.467597313276983 2.980643714703023 -0.281462772674552 1
-4.419184870862864 2.972928881752367 1.427128214695299 61
-4.432987842865886 2.979967404071736 1.233181679913068 58
-4.423050122989487 2.971045920881725 1.035711226903885 100
-4.432842690996774 2.976501139694904 0.845684718007488 71
-4.435907777136283 2.976313210191344 0.655900806206504 76
-4.417987030113992 2.963171034996462 0.465411666272495 27
-4.434799125111291 2.972203119340199 0.279788022074778 61
-4.422970587296311 2.962038772053791 0.092916611872097 56
-4.440507085804191 2.986147396685329 -0.093405279252341 32
-4.451057579905825 2.990986566776182 -0.281044085024608 1
-4.426370835797438 3.000259600543344 1.432822233687555 60
-4.428489112558001 3.000567512552585 1.234981288347819 60
-4.423510838029140 2.994941992726735 1.038382552839157 100
-4.432242462028706 2.998597927350811 0.847561931587971 73
-4.433191042233099 2.998111930241491 0.657119499640555 72
-4.438981779838832 2.999770484486313 0.468723584496906 45
-4.426052399573421 2.988783069425232 0.279892693987264 37
-4.428658786049037 2.989417815129776 0.093265660000843 56
-4.443300249022569 3.010602947611811 -0.093684517755338 33
-4.449987102567071 3.014000598170710 -0.281672116499524 3
-4.435014957869313 3.028766049844518 1.439033890770016 73
-4.424953159606629 3.019630200643950 1.236780896782570 60
-4.433019340355549 3.022867158811361 1.042961968728194 100
-4.425012886751467 3.016276285335877 0.848187669448132 73
-4.439631188929407 3.023971497839267 0.659556886508658 72
-4.435071137560369 3.019732453170155 0.469420830438887 50
-4.427151777719243 3.012079103108957 0.280625397374665 55
-4.428643447140678 3.010833045164936 0.093475088878090 56
-4.434415764972489 3.027222075302197 -0.093719422568212 36
-4.446567578111861 3.033242745231368 -0.282090804149467 5
-4.424415571742212 3.044228688804498 1.439033890770016 65
-4.427232245687880 3.043890243815952 1.240380113652072 56
-4.431618018658147 3.045766680019551 1.045251676672712 100
-4.427483959886329 3.040650465357889 0.850690620888775 73
-4.438337289470948 3.046964319661495 0.661019318629520 66
-4.431075142058289 3.039703617080632 0.470118076380868 47
-4.429789682777061 3.036548381626786 0.281462772674552 58
-4.440672582795085 3.042869340757479 0.093963756258334 61
-4.437002618965642 3.051748353159030 -0.093998661071209 39
-4.454058423570257 3.061189543018954 -0.283242195186812 5
-4.426999229384419 3.067686384788612 1.443174995491656 65
-4.429931160146191 3.067429761477992 1.243979330521574 61
-4.429564890431217 3.066032502211590 1.047159766626478 100
-4.433622783304147 3.066552722669837 0.853819310189580 70
-4.441271350983762 3.070697085270956 0.662969228124002 70
-4.427527629782524 3.058910920536651 0.470815322322849 47
-4.432844733713108 3.060299036572338 0.282300147974439 58
-4.428911824318037 3.056442609191610 0.093928851445460 49
-4.446584327851633 3.080109275243826 -0.094417518825704 41
-4.458662760855138 3.086173310320668 -0.284184242399185 7
-4.431023950801985 3.095726253711336 1.448351376393706 65
-4.434099183857483 3.095572036519171 1.248478351608451 61
-4.416149575442048 3.081894617741136 1.046778148635725 100
-4.439638778943821 3.095983093618763 0.857260868420465 66
-4.432704956774570 3.089998052769030 0.663456705497623 65
-4.433733075952775 3.088415574294300 0.472732748663298 45
-4.434175392350385 3.086425397249767 0.283137523274326 61
-4.430274911313488 3.082562739989978 0.094208089948456 31
-4.452758808349111 3.109754922115273 -0.094801471767324 42
-4.444600519683010 3.102903320773241 -0.284079570486699 7
-4.434953447693124 3.120407907675075 1.453010119205551 69
-4.426997848061390 3.112500646908380 1.249378155825826 60
-4.429998903193425 3.113455375746210 1.052502418497021 100
-4.445513221013218 3.122041321116824 0.860389557721270 66
-4.432181982298117 3.111523970054004 0.664919137618485 65
-4.444671078088678 3.117976130364789 0.474998797974737 56
-4.435364267906738 3.109137743071404 0.283870226661727 63
-4.439680254897966 3.111007710539715 0.094626947702951 52
-4.437554196506654 3.119922525683239 -0.284288914311671 7
-4.446099180499987 3.151510021858345 1.460257052468422 69
-4.425647683537190 3.134693022245757 1.252077568477953 60
-4.436729069275370 3.141379286001139 1.056700216395305 100
-4.437813334509050 3.139821884889093 0.861015295581431 71
-4.435880114001393 3.137292486401205 0.667112785799777 61
-4.448403843614252 3.143821013586331 0.476567601344195 52
-4.432641565208658 3.130361806964029 0.284393586224157 63
-4.443496509181418 3.136865467648990 0.094941091018822 54
-3.441093155947474 2.438233547926961 -0.073614250352462 12
-3.439380609922922 2.435217214300278 -0.220857735345223 1
-4.443485744098910 3.171848394431502 1.462845242919447 65
-4.442198826035670 3.168589628831456 1.259725904325644 64
-4.443871148339811 3.168612412432442 1.060898014293589 100
-4.440247191036007 3.163691059436237 0.863518247022074 71
-4.441621075494076 3.163501349455575 0.669550172667880 61
-4.447693573587851 3.165486889641820 0.477613470257167 58
-4.435257478594198 3.154304106639420 0.285230961524044 61
-4.446108297334717 3.160852748423618 0.095220329521819 52
-3.419966519019046 2.440339112669751 -0.073335011849465 29
-3.432912429751057 2.447768752198535 -0.220962407257709 6
-4.438103430253848 3.192625824475429 1.464915795280267 60
-4.443214257174409 3.193949389548829 1.263325121195146 53
-4.441793713845120 3.191752570442785 1.063187722238108 100
-4.451085883284738 3.196074280425320 0.867898412043201 75
-4.447735767636674 3.192492384168692 0.672231298222793 70
-4.450632615137464 3.192218299821721 0.479182273626625 61
-4.454510499141488 3.192645461206983 0.287219727861276 42
-4.434493329221143 3.177127319126342 0.095220329521819 54
-3.398011159712862 2.443517753659178 -0.073055773346469 28
-3.420673968199190 2.458003598099374 -0.220753063432737 7
-4.440007777459382 3.216392196336912 1.469056900001908 58
-4.445226794229248 3.217807556316229 1.266924338064648 53
-4.442318689214421 3.214520983425557 1.065859048173379 97
-4.459671769084256 3.224706659518075 0.871652839204166 71
-4.451604003176659 3.217689977385855 0.674424946404086 72
-4.449713212164315 3.213959125534005 0.480228142539597 66
-4.460093779376234 3.219088370130807 0.288266446986135 63
-4.436906624193353 3.201175321767962 0.095499568024815 54
-3.378552056412073 2.446562587870770 -0.072811439656347 27
-3.401177654774132 2.461137460978287 -0.220020360045336 8
-4.446346476656411 3.247088802913054 1.475268557084368 58
-4.434412722946166 3.236000979282644 1.267374240173335 51
-4.442631799484592 3.240810677493270 1.068911992099404 95
-4.461623526690893 3.252279211491475 0.874468659574891 78
-4.444029202948713 3.238266295353921 0.675156162464517 70
-4.463110117301763 3.249785613933982 0.483017126307522 66
-4.441240532887151 3.231489779727824 0.287847759336191 71
-4.445605550550425 3.233479278929049 0.095953330592185 56
-3.359442348677838 2.452442874755855 -0.072602010779099 27
-3.394929635400329 2.476532989526646 -0.220229703870308 8
-4.443335968834544 3.267538049024875 1.477856747535393 61
-4.442501495960820 3.264535676352866 1.272773065477588 50
-4.447682879095597 3.267147880947933 1.072728172006935 95
-4.438074688228915 3.257705460218858 0.871965708134247 76
-4.450871318745326 3.265903414821189 0.677837288019430 72
-4.469983168618655 3.277527261810961 0.484934552647970 70
-4.446611016643965 3.258004058772064 0.288894478461050 71
-4.447764603091721 3.257656416525490 0.096232569095181 60
-3.328734515425890 2.446987983525093 -0.072113343398855 27
-3.406014260436548 2.501966209363941 -0.221485766820138 2
-4.437133584206069 3.285703670215200 1.479409661806009 58
-4.444183544143330 3.288522832948208 1.276372282347090 51
-4.452607964279365 3.293554094712432 1.076544351914466 90
-4.446309766876928 3.286494743889510 0.875720135295212 75
-4.455982260508415 3.292441717136535 0.680274674887533 72
-4.460692755126039 3.293515679984720 0.485108864133465 66
-4.455068648338310 3.286960906660139 0.290150541410881 68
-4.459468063736254 3.289004954531248 0.096721236475425 60
-3.298100051074226 2.441356581675323 -0.071624676018612 28
-4.452080354326407 3.294366165100574 -0.290255213323366 14
-4.438603081943731 3.309638017079033 1.483550766527649 60
-4.452005841172767 3.317214315921389 1.281771107651343 50
-4.444810661357263 3.310646847029530 1.077307587895972 92
-4.451233237185534 3.313015455997905 0.878848824596017 76
-4.459373329810014 3.317864749110002 0.682468323068826 70
-4.459339954046401 3.315422258141788 0.486154733046437 66
-4.452160330809817 3.307671850721649 0.290673900973310 66
-4.448536810598546 3.303774999476262 0.096721236475425 56
-3.280366244472121 2.445109642654827 -0.071415247141364 28
-4.460350107122989 3.323431674894719 -0.291511276273197 14
-4.442849205692191 3.339424636712446 1.489244785519904 69
-4.457349483607783 3.349106320300466 1.287169932955596 48
-4.439915877300734 3.333583135782904 1.079215677849737 95
-4.457440497116155 3.344308555539828 0.882603251756983 76
-4.454541160300026 3.340918304098187 0.683687016502877 72
-4.460925743810006 3.343274332183813 0.487723536415895 63
-4.458610689769400 3.339109404203143 0.291929963923141 63
-4.458229671421968 3.337609688301667 0.097209903855669 56
-3.261361299399692 2.450479995066945 -0.071205818264117 30
-4.455541036998052 3.346531015708456 -0.292034635835627 8
-4.452728219520950 3.371238339052337 1.496491718782775 61
-4.449327096052563 3.366220543058880 1.288069737172971 50
-4.447629706668888 3.362495827082046 1.083795093738774 92
-4.464650859857901 3.374139707331826 0.886357678917948 75
-4.451358349840028 3.361653314933778 0.684905709936929 70
-4.465129820519470 3.370829880489592 0.489466651270848 63
-4.450116764302985 3.357058147982840 0.292139307748112 61
-4.451927699035605 3.355986535674091 0.097314618294293 46
-3.240031628574073 2.452195030197033 -0.070926579761120 33
-4.457162896043511 3.370925822860311 -0.292872011135514 17
-4.461496571979652 3.401211390286787 1.503221013955440 73
-4.443749546575436 3.386455822622247 1.289869345607722 47
-4.454608402225693 3.392273707944669 1.088374509627811 92
-4.448721302231811 3.385337773661797 0.885419072127707 73
-4.460135930996496 3.392794897574674 0.688074312865463 61
-4.463444133469752 3.392852477626663 0.490512520183820 56
-4.451683530017156 3.381461579223425 0.292976683048000 57
-4.467260302079436 3.392064182320110 0.097908000113161 50
-3.215977110711356 2.450805181039351 -0.070577531632375 33
-4.459667914105405 3.397356530453623 -0.293814058347887 15
-4.448064717308913 3.415587626572448 1.502703375865236 61
-4.454139774015560 3.417781656832646 1.296167975129350 56
-4.455798496298629 3.416583948041064 1.091427453553836 94
-4.458826380665884 3.417670057897241 0.889799237148833 71
-4.456740162228929 3.413601950702839 0.689293006299514 57
-4.459483365592672 3.414468304183296 0.491384077611297 54
