ply
format ascii 1.0
element vertex 820
property double x
property double y
property double z
property uchar intensity
end_header
-0.211820817085403 1.169053830301245 0.318347425476101 89
-0.215965017251379 1.190741273720419 0.279389209495080 7
-0.212726743160466 1.170559657931076 0.231260502396372 84
-0.217636279605490 1.195203393381624 0.192414391999484 15
-0.216068627146195 1.185420317214315 0.147949382893849 79
-0.215488410585296 1.179902234402789 0.104935514268180 88
-0.963499847931121 5.265223277850891 0.280520725462179 66
-0.962712843323118 5.255741764771680 0.093265660000843 75
-0.955322697676372 5.267251985172743 -0.093440184065216 76
-0.954363415707844 5.256737766509535 -0.279997365899749 68
-0.958502538353019 5.269071119536280 -0.468549273011410 78
-0.961242592149987 5.278901156016772 -0.658825670448227 56
-0.938870880128268 5.145849147819948 -0.828476926853063 3
-0.749539630903339 4.100039368128652 -0.810174994368809 1
-0.963596119472805 5.265749371511790 -1.235881092565194 4
-0.970655135585747 5.293887573206093 -1.442139719311246 2
-0.208414340419929 1.173590283101353 0.319382701656511 89
-0.208942505538933 1.174183488187968 0.275340090516891 8
-0.208843857807816 1.171258649098194 0.231260502396372 88
-0.212421632760678 1.190121873428849 0.191475785209243 13
-0.211437476831129 1.182222136407379 0.147461905520228 79
-0.212070691183544 1.184569657042901 0.105284137239171 88
-0.942998989951178 5.256759171276882 0.279892693987264 68
-0.946340198352785 5.264809797339183 0.093370374439467 78
-0.936930736927195 5.270554593797785 -0.093440184065216 76
-0.936225692106055 5.255941030504816 -0.279788022074778 70
-0.941153431713946 5.278269174848347 -0.469072207467896 74
-0.941636985593869 5.270334843276796 -0.657363238327366 56
-0.919712793169619 5.137267492753110 -0.826599713272580 3
-0.732799062731827 4.089103490879845 -0.807503668433538 1
-0.944062431330271 5.257407447599774 -1.233181679913068 4
-0.950461257872557 5.287736641800490 -1.439551528860221 4
-0.633160173151952 3.460020974000284 -0.812073306181353 2
-0.549434008908371 2.996575988135682 -0.816315268253350 4
-0.621682848796475 3.462101584428161 -0.812073306181353 2
-0.539654198554753 3.002278373751519 -0.817350544433760 4
-0.205184383251641 1.178081358968277 0.320417977836921 93
-0.206850827798980 1.186424363251363 0.278039503169017 8
-0.206105642206409 1.179716359477687 0.232786974359385 82
-0.207451947664661 1.184982393561299 0.190537178419001 18
-0.207994783847966 1.186863576824804 0.147949382893849 79
-0.208830560377048 1.189191118795877 0.105632760210162 92
-0.924177228249035 5.251989216531932 0.279474006337320 68
-0.926916117920293 5.262172937770497 0.093265660000843 75
-0.917387024443715 5.261812717464333 -0.093230755187969 72
-0.917873330302281 5.259177047050544 -0.279788022074778 70
-0.923988120404824 5.283323732064967 -0.469246518953392 78
-0.922441446653583 5.263651974979195 -0.656144544893314 61
-0.901092134364252 5.136555261780826 -0.825973975412419 3
-0.720934593505048 4.101179088661222 -0.809411758387303 1
-0.929082155505166 5.279863334471277 -1.237680700999945 4
-0.934263115395625 5.298469421082581 -1.441622081221041 4
-0.199121871252014 1.167364330574841 0.317312149295690 89
-0.202587023480051 1.185182902045359 0.277589601060329 19
-0.201529502547036 1.176523201824893 0.232023738377878 82
-0.201978925472938 1.177911472233234 0.189285702698679 35
-0.204394033166504 1.189503206352177 0.148193121580659 75
-0.202313966390034 1.176167960871490 0.104412579811694 81
-0.907195796027831 5.263056133799257 0.279892693987264 68
-0.909801394274882 5.267188284804420 0.093300564813718 80
-0.898341114584190 5.261040608099274 -0.093160945562219 74
-0.899754502877547 5.258254615099927 -0.279578678249806 71
-0.902512812005880 5.268842774130904 -0.467677715583934 74
-0.904733918472668 5.270752785333299 -0.656632022266935 61
-0.888741912601317 5.166770153030869 -0.830354140433545 3
-0.705948111656380 4.099801072108221 -0.808648522405797 2
-0.911568389329789 5.282915251444696 -1.237680700999945 6
-0.915104674757295 5.297891004105330 -1.440586805040630 4
-0.610944972485949 3.471927579810447 -0.813872914616104 2
-0.530366242528001 3.007856428987993 -0.818385820614171 4
-0.598102850868873 3.466253009399374 -0.812073306181353 2
-0.517890716041229 2.998267456509484 -0.815279992072940 4
-0.195159779432936 1.169991831912481 0.317829787385895 78
-0.198997657482738 1.191718421067318 0.278939307386393 51
-0.197982594533424 1.183097333190837 0.233168592350138 62
-0.197987018705273 1.180592021851974 0.189598571628760 80
-0.199496513396072 1.188321556332351 0.147949382893849 55
-0.198332290225612 1.178866355793842 0.104586891297190 38
-0.888563735982911 5.270284748996920 0.280102037812235 68
-0.887573395481730 5.258811986375163 0.093091135936470 78
-0.878393689899740 5.260353083772455 -0.093091135936470 76
-0.880874867496812 5.269550354907113 -0.279997365899749 71
-0.881878747607969 5.264255228946483 -0.466980469641953 74
-0.884817379047691 5.276145604549463 -0.656875760953745 63
-0.863003393692006 5.135079545730300 -0.824722499692097 3
-0.692873195678714 4.113976898484758 -0.810938230350315 2
-0.889332883969256 5.274846750278314 -1.234981288347819 4
-0.892140546685726 5.280256048479622 -1.434892786048375 4
-0.190763360462314 1.168759316632160 0.317312149295690 31
-0.194415506234624 1.188525408063732 0.278039503169017 85
-0.193105391165903 1.177935181888977 0.232023738377878 10
-0.193864777288723 1.181275932948406 0.189598571628760 100
-0.191688807454664 1.165471273814300 0.145024518652125 46
-0.195187150756238 1.185449240039274 0.105109825753676 26
-0.869511250641579 5.269413085426144 0.279892693987264 66
-0.869477150636269 5.257780569534338 0.093021326310721 78
-0.861316157672790 5.271281296119461 -0.093230755187969 76
-0.860167918480448 5.252732402158031 -0.278950646774891 65
-0.862530732231536 5.261403054682737 -0.466457535185467 70
-0.867638008879037 5.281009586124661 -0.657119499640555 61
-0.846611970146815 5.141811398600060 -0.825348237552258 3
-0.679466409549570 4.122181759996877 -0.812083084322575 1
-0.870565537009750 5.270076146517972 -1.233181679913068 6
-0.873703578211849 5.283338031014687 -1.434892786048375 4
-0.586732915434726 3.480053721221868 -0.814772718833479 2
-0.506254357841503 2.996335773542008 -0.814244715892530 4
-0.573283762970667 3.470444160694979 -0.812073306181353 2
-0.497052865382426 3.005708540732381 -0.816315268253350 4
-0.186073388708538 1.165602691120324 0.316276873115280 13
-0.188520350613984 1.179608391531683 0.275789992625578 89
-0.188165736815437 1.174757947630098 0.231260502396372 7
-0.190679481481591 1.187796665672217 0.190537178419001 100
-0.190250715817818 1.183805506189685 0.147218166833418 48
-0.190731142401698 1.184156311119193 0.104935514268180 24
-0.849839101843671 5.264529207893077 0.279474006337320 66
-0.852114729042859 5.272776547022954 0.093230755187969 78
-0.842910704723666 5.274255736134657 -0.093230755187969 72
-0.840594375793953 5.253877617311486 -0.278845974862405 58
-0.846052488253310 5.276185341160483 -0.467503404098438 70
-0.846703100639103 5.274354177696620 -0.655900806206504 63
-0.830270869924101 5.160482215010387 -0.827851188992902 3
-0.664135567259563 4.118713771902233 -0.810938230350315 1
-0.851243894912961 5.273231530636617 -1.233181679913068 6
-0.857415701218256 5.299705020666758 -1.438516252679810 2
-0.183790811231259 1.177697595985295 0.319382701656511 11
-0.184607591674344 1.180227061655418 0.275789992625578 92
-0.185789436296314 1.185073285878200 0.233168592350138 7
-0.184694380653531 1.176746108309748 0.188659964838518 100
-0.187249479706586 1.190312821257900 0.147949382893849 50
-0.188766230283927 1.198591789891053 0.106155694666648 24
-0.830834473555085 5.263517961005198 0.279264662512348 66
-0.834624886694567 5.275573269778097 0.093230755187969 78
-0.821716825115745 5.259384371060924 -0.092916611872097 28
-0.828247183742298 5.283043165012944 -0.467852027069429 30
-0.830440621363606 5.284977067978693 -0.656875760953745 63
-0.811309643551480 5.151499165701357 -0.825973975412419 3
-0.648531459716566 4.113249755502610 -0.809411758387303 1
-0.833144192098090 5.272175654699407 -1.232281875695692 4
-0.840138739866649 5.304427241370231 -1.439033890770016 4
-0.560560098620173 3.472522040422872 -0.812073306181353 2
-0.487792091984909 3.015053486028839 -0.818385820614171 4
-0.549041718414404 3.474361831592709 -0.812073306181353 2
-0.476582299557448 3.009022215698149 -0.816315268253350 4
-0.178426680405566 1.168751965726487 0.316794511205485 10
-0.181075569358861 1.184717010304304 0.276689796842954 89
-0.181651626660993 1.185714592164940 0.233168592350138 8
-0.180791134423582 1.177352106797692 0.188659964838518 100
-0.183696644838251 1.194883275131552 0.148436860267470 50
-0.182363057116079 1.183457986491621 0.104761202782685 24
-0.813070587428136 5.264270312161749 0.279159990599862 61
-0.814065553434969 5.264621050002331 0.092986421497847 31
-0.810481078946429 5.278033178228544 -0.655657067519693 61
-0.788514597086323 5.123061599675170 -0.820968072531132 3
-0.634289197717199 4.111497145915366 -0.808648522405797 1
-0.814735788888168 5.275051750754363 -1.232281875695692 6
-0.821026623115610 5.303509335201905 -1.437998614589605 4
-0.173491250961716 1.163635476170133 0.315241596934870 10
-0.177433952693816 1.187238299456534 0.277139698951642 86
-0.175100869511215 1.168836156506660 0.229734030433360 8
-0.176680307184311 1.177976012794992 0.188659964838518 100
-0.179438130577360 1.193522834306526 0.148193121580659 48
-0.178230906802524 1.184087342323984 0.104761202782685 24
-0.795881787174840 5.274976013548448 0.279578678249806 9
-0.255963208769496 1.714737011468154 -0.030262472762250 4
-0.255953609884103 1.710583255709266 -0.090645876212779 4
-0.256512915844972 1.712279165074905 -0.151476680895430 3
-0.793268819783032 5.282654892379180 -0.655900806206504 43
-0.768875352168232 5.108067891591991 -0.818152252160408 1
-0.620811208507886 4.119510180951759 -0.809793376378056 1
-0.798985022564386 5.289285788379046 -1.234981288347819 4
-0.800486758071432 5.292972027610978 -1.434375147958170 2
-0.258603630605731 1.689982293779041 -0.089599157087920 2
-0.268046882850991 1.741528562084700 -0.279079085631772 1
-0.538695331754828 3.487812603364787 -0.814772718833479 2
-0.465484856518030 3.006849245119871 -0.815279992072940 3
-0.257565892351576 1.711153909382250 -0.274073182750484 1
-0.527126366435010 3.489579804282132 -0.814772718833479 2
-0.454986158052149 3.008455771738467 -0.815279992072940 3
-0.172138412843237 1.181409386899286 0.319900339746716 10
-0.174340900847663 1.193605002268211 0.278489405277705 89
-0.172440233411667 1.179153210555561 0.231642120387125 8
-0.173059548940231 1.180509915510272 0.188972833768599 100
-0.173541218512057 1.182357623668914 0.146730689459798 51
-0.174883396133291 1.188614202458863 0.105109825753676 24
-0.247426960319848 1.675572095419581 0.029564376504758 2
-0.252873544421329 1.733385139281229 -0.030576616078121 18
-0.252591756765351 1.727232531857498 -0.091483251512666 15
-0.252276613171810 1.722977226990092 -0.152348238322906 10
-0.765113211796686 5.206485584890462 -0.833482829734350 1
-0.606574766685368 4.117661628199983 -0.809030140396550 1
-0.792743781508462 5.374941569516206 -1.254327079021391 2
-0.786885849031179 5.322352528302725 -1.441622081221041 2
-0.169308572772266 1.189624038014236 0.321970892107536 11
-0.168730285514171 1.182601357481839 0.275789992625578 92
-0.166863216580903 1.168057420617253 0.229352412442607 9
-0.169143885448080 1.181077310811190 0.188972833768599 100
-0.170182944835351 1.186856594808899 0.147218166833418 51
-0.170940847829015 1.189187601294905 0.105109825753676 24
-0.242725882165511 1.682320983394539 0.029669090943382 6
-0.247406146844060 1.736193863971566 -0.030611520890995 59
-0.244038142905500 1.708288798305750 -0.090436532387807 31
-0.245997413436070 1.719859700532469 -0.151999615351916 31
-0.244004023555321 1.701685117722693 -0.211077702777715 2
-0.244789671908511 1.705046137997465 -0.272821707030163 2
-0.595993228464278 4.141026007163136 -0.813227938294834 1
-0.525319313557076 3.645463488278882 -0.850314985419810 1
-0.248308630859657 1.718892090437494 -0.465356643094332 1
-0.185926471240917 1.260614012316406 0.066780680165996 3
-0.251304076697485 1.710088170712896 -0.273760313820404 1
-0.263516679300577 1.788852056401974 -0.351470169483596 1
-0.515510931088537 3.495254327666026 -0.815672523050854 2
-0.259375658675268 1.754369702327433 -0.475191766808228 1
-0.245557041103536 1.706157125429016 -0.335060595881213 1
-0.245426959720052 1.703145111190610 -0.397263561971266 2
-0.163680089452992 1.182610925430083 0.319900339746716 12
-0.163384658496442 1.177449779236398 0.274440286299515 86
-0.164268225017142 1.182301541519282 0.232023738377878 10
-0.163517521582948 1.173892121051965 0.187721358048277 100
-0.166721350306977 1.195365546629146 0.148193121580659 51
-0.167477084442578 1.197727969852004 0.105807071695657 24
-0.235986501688250 1.681260296930051 0.029634186130507 16
-0.233600794014818 1.685631140455040 -0.029703995756257 42
-0.232786486475915 1.677601799536473 -0.088761781788033 45
-0.239391829057804 1.720791582125281 -0.151999615351916 61
-0.242404068538434 1.737998590822641 -0.215464999140301 5
-0.237148127775372 1.698147924934384 -0.271570231309841 4
-0.236826360295742 1.691533089866194 -0.332007651955188 1
-0.241320405950323 1.721443752720702 -0.401312680949455 4
-0.241706744790630 1.719832853579292 -0.465356643094332 2
-0.159499003034052 1.181232728091180 0.319382701656511 14
-0.160524961197221 1.185709600783359 0.276239894734266 86
-0.160610396690109 1.184785234042953 0.232405356368632 10
-0.159091776433515 1.170513150535974 0.187095620188116 100
-0.163024150160116 1.197878802291162 0.148436860267470 50
-0.161618801830911 1.184458080754034 0.104586891297190 26
-0.228753153826292 1.672109143356135 0.088447766050575 57
-0.230681333901959 1.684014806120126 0.029669090943382 34
-0.226134234400490 1.672524868677011 -0.029459662066135 45
-0.226954127930091 1.676385319872495 -0.088657109875547 51
-0.230468325181977 1.697884560075706 -0.149907877525972 66
-0.237174707786310 1.742726796108323 -0.215952476513921 23
-0.234716238382869 1.722412441860930 -0.275324658470806 14
-0.232544558325618 1.702035048316731 -0.333915741908953 2
-0.236138840701869 1.726096047353072 -0.402212485166831 12
-0.235739728139553 1.718710993740211 -0.464839005004127 3
-0.155419985983031 1.183724799346102 0.319900339746716 15
-0.156178040045896 1.186289989995964 0.276239894734266 86
-0.155497075436237 1.179526701504529 0.231260502396372 11
-0.155059426500306 1.173046730722963 0.187408489118197 100
-0.158632609869017 1.198468269751052 0.148436860267470 53
-0.158324970118569 1.192942770749191 0.105284137239171 29
-0.222623030956251 1.672936334344052 0.088447766050575 46
-0.222130422757275 1.667009406792733 0.029354947627511 49
-0.218699272441306 1.663429291832346 -0.029285138001762 48
-0.220840028236102 1.675187197795958 -0.088552437963061 58
-0.223722222145215 1.694767357691127 -0.149559254554981 46
-0.227659936002498 1.719969240989194 -0.213027612272198 32
-0.227363515087591 1.715428145538027 -0.274073182750484 36
-0.228632431818460 1.720391229816481 -0.337350303825731 8
-0.229296678216211 1.723086522919895 -0.401312680949455 32
-0.229438754021854 1.719563478787472 -0.464839005004127 4
-0.151984029603437 1.188066153534801 0.320935615927126 19
-0.151499442174743 1.181002668641203 0.274890188408203 76
-0.151334629080886 1.178088609051360 0.230878884405619 21
-0.151925715686999 1.179432044831686 0.188347095908438 100
-0.152879801541421 1.185206256755046 0.146730689459798 56
-0.153601429542816 1.187533448469528 0.104761202782685 55
-0.215789687670316 1.663762035099628 0.087924406488146 50
-0.214798335281127 1.653855570271070 0.029110613937389 50
-0.213181939645204 1.664145378655761 -0.029285138001762 60
-0.213247913444850 1.660062467256402 -0.087715062663174 61
-0.216067365752826 1.679691071762684 -0.148164762671019 49
-0.222970873344464 1.728589856197559 -0.214002567019439 43
-0.218130969870607 1.688745260887900 -0.269693017729358 34
-0.222421794003577 1.717245961215882 -0.336587067844225 17
-0.221576241786790 1.708376998664278 -0.397713464079953 31
-0.224482659541720 1.726062024725734 -0.466391919274742 14
-0.147835978864502 1.188589438697253 0.320935615927126 45
-0.145687617893913 1.167988020307465 0.271740873647389 34
-0.147221410428094 1.178609688169574 0.230878884405619 52
-0.147807803967097 1.179955179042527 0.188347095908438 48
-0.148988807530682 1.187702341793415 0.146974428146608 65
-0.149952583607328 1.192016001234681 0.105109825753676 84
-0.206481080374890 1.636763393046102 0.086458999713343 54
-0.209023993369220 1.654595280530007 0.029110613937389 60
-0.207371689446732 1.664879383951950 -0.029285138001762 61
-0.207451914864898 1.660796727718622 -0.087715062663174 67
-0.208966346124532 1.670550142281412 -0.147293205243542 55
-0.213970658908077 1.705721771132832 -0.211077702777715 60
-0.210757547378865 1.677736555979793 -0.267815804148875 40
-0.216426131889091 1.718011896115843 -0.336587067844225 28
-0.215123734358927 1.705273203408163 -0.396813659862578 48
-0.216274073553727 1.709585914443015 -0.461733176462897 41
-0.143429488294425 1.185237425378365 0.319900339746716 89
-0.143457164438262 1.182006525484625 0.274890188408203 8
-0.144022829344318 1.184938145835812 0.232023738377878 97
-0.143177038563333 1.174556254010283 0.187408489118197 10
-0.144568332820877 1.184248947814025 0.146486950772987 64
-0.145514649846646 1.188551461684152 0.104761202782685 91
-0.201539051368355 1.641403853109243 0.086668343538315 55
-0.202803864493100 1.649325089344406 0.029005899498765 59
-0.199443774614071 1.645706195975015 -0.028936089873016 68
-0.201943373807781 1.661475531434973 -0.087715062663174 67
-0.203425453252322 1.671233914405213 -0.147293205243542 57
-0.205907642087639 1.686717303375715 -0.208640315909612 66
-0.205432524882317 1.680387006731900 -0.268128673078956 42
-0.208099684549054 1.697284859567005 -0.332389269945941 38
-0.208280203410880 1.696306130667217 -0.394564149319139 48
-0.212256412781445 1.723715292605228 -0.465356643094332 61
-0.136608800057814 1.164649485358024 0.314206320754460 93
-0.138668532896707 1.178653599390100 0.273990384190828 7
-0.139678846558352 1.185458056893318 0.232023738377878 82
-0.139798466002431 1.182920033886694 0.188659964838518 12
-0.141160162740063 1.192656193073067 0.147461905520228 64
-0.139983059053521 1.179184330274952 0.103889645355209 92
-0.195285514544217 1.640148255056187 0.086563671625829 63
-0.197467739260789 1.656014210116393 0.029110613937389 77
-0.193410620249241 1.646426140061456 -0.028936089873016 70
-0.195618691062571 1.660220993464267 -0.087610390750688 69
-0.195897770803736 1.660096316485986 -0.146247336330570 61
-0.198790840751295 1.679575333054964 -0.207665361162371 58
-0.198574649739275 1.675243736582100 -0.267190066288714 46
-0.201645650182282 1.696086657811377 -0.332007651955188 43
-0.202061531661748 1.697058122014262 -0.394564149319139 54
-0.204791886233154 1.714890562855597 -0.462768452643307 75
-0.133183315697165 1.168934959688460 0.315241596934870 93
-0.136086891251944 1.190723777520373 0.276689796842954 7
-0.134853885884544 1.178112659993565 0.230497266414866 88
-0.136550988141252 1.189264566559511 0.189598571628760 12
-0.136750827881991 1.189173548538886 0.146974428146608 64
-0.135615355866367 1.175683516911277 0.103541022384218 96
-0.190075072451204 1.642770849832987 0.086668343538315 62
-0.190363810596464 1.642755111841044 0.028866280247267 62
-0.188403248402844 1.651032063221525 -0.029005899498765 64
-0.190793529735461 1.666813465194828 -0.087924406488146 74
-0.189256981739480 1.650839688695175 -0.145375778903094 67
-0.192766506964665 1.676281121489309 -0.207177883788751 61
-0.191436132685498 1.662156194736223 -0.264999983778151 53
-0.193992321127109 1.679193468259786 -0.328573090038410 49
-0.196656755763570 1.699654676570250 -0.395014051427827 55
-0.198881266795203 1.713641276978040 -0.462250814553102 76
-0.129730906479842 1.173210480449412 0.316276873115280 93
-0.131278129372166 1.183421073441506 0.274890188408203 7
-0.130079187462778 1.170748384699766 0.228970794451854 86
-0.132168848722046 1.185784408535107 0.188972833768599 12
-0.132806634385074 1.189620492146250 0.146974428146608 60
-0.132159391059070 1.180086792122878 0.103889645355209 92
-0.184403424155577 1.641407355873110 0.086563671625829 68
-0.185138789221309 1.645364503758297 0.028901185060141 54
-0.183367450861380 1.655622837817691 -0.029075709124514 61
-0.182772029925091 1.647618479052559 -0.086877687363287 72
-0.183781559455559 1.651458210586148 -0.145375778903094 65
-0.188307914426597 1.686775324684982 -0.208396577222802 72
-0.185703663656836 1.660818738013824 -0.264687114848071 54
-0.189517057624978 1.689582633238206 -0.330481179992176 60
-0.189278920637985 1.684805008744276 -0.391414834558325 57
-0.194495613757966 1.725809563931341 -0.465356643094332 73
-0.126251600891363 1.177475916179060 0.317312149295690 93
-0.127561475644586 1.185787461767718 0.275340090516891 8
-0.127037438231882 1.178981127695755 0.230497266414866 91
-0.128448230336186 1.188180110453533 0.189285702698679 13
-0.127792481447501 1.180186573167096 0.145755734712556 57
-0.128245355577584 1.180518559939126 0.103889645355209 92
-0.176362557981010 1.618183815283164 0.085307608675998 68
-0.179247532552139 1.641993627839198 0.028831375434392 57
-0.177876199466017 1.656221803021090 -0.029075709124514 61
-0.177307325213748 1.648215513779662 -0.086877687363287 72
-0.178731703993461 1.656020343077353 -0.145724401874084 67
-0.181003732083668 1.671602052629649 -0.206446667728320 76
-0.180834159151882 1.667317001319172 -0.265625721638312 56
-0.183063674269861 1.682394867808466 -0.328954708029163 62
-0.184113143024237 1.689297953224365 -0.392314638775701 55
-0.188351594642590 1.722604233427626 -0.464321366913922 70
-0.122332918539644 1.181773909736677 0.318347425476101 89
-0.122605464358466 1.182391825650569 0.274440286299515 8
-0.123121745490808 1.183344250765040 0.231260502396372 91
-0.123066912166078 1.178819420803041 0.187721358048277 13
-0.123878952905088 1.184595681211888 0.146243212086177 56
-0.124749339622086 1.188906718137568 0.104586891297190 88
-0.169593964832336 1.610874221713005 0.084888921026055 66
-0.173228121084008 1.642639573934668 0.028831375434392 57
-0.169456459416209 1.637001920374609 -0.028726660995769 68
-0.171677809467641 1.652827449776657 -0.087087031188259 72
-0.172660885508683 1.656664304351910 -0.145724401874084 65
-0.174377802098604 1.670310370616779 -0.206202929041510 83
-0.174310327588848 1.664039337964535 -0.264999983778151 56
-0.175254431526717 1.667434533762783 -0.325901764103139 65
-0.178532431047123 1.695775502376421 -0.393664345101764 52
-0.182036669385031 1.723283006132885 -0.464321366913922 73
-0.116465710764269 1.166835946572661 0.314206320754460 93
-0.118088949213630 1.178934520970478 0.273540482082140 8
-0.120168475415365 1.195487280051976 0.233550210340891 91
-0.119141314706575 1.183193440901718 0.188347095908438 16
-0.119144471663018 1.179095778079433 0.145511996025746 52
-0.119794530550261 1.181406031827420 0.103889645355209 92
-0.163486840924518 1.609497960218270 0.084784249113569 64
-0.167290407314267 1.641244857691981 0.028796470621518 59
-0.163741223959386 1.637583460628593 -0.028726660995769 68
-0.166505542577258 1.659378486448267 -0.087401046925716 70
-0.166477768737786 1.653292180899797 -0.145375778903094 65
-0.167749359399522 1.663008608212273 -0.205227974294268 82
-0.168699622594817 1.666602990374188 -0.265312852708232 61
-0.170226527968662 1.675848942895017 -0.327428236066151 65
-0.173598336393238 1.706082013418362 -0.395913855645202 55
-0.175235251751845 1.716220496028544 -0.462250814553102 73
-0.111853721391196 1.159524043347206 0.312135768393640 97
-0.114722802560214 1.187098358657311 0.275340090516891 13
-0.114478443171413 1.180266790274268 0.230497266414866 84
-0.115583614889964 1.189500462682901 0.189285702698679 15
-0.115798639869446 1.187407364074191 0.146486950772987 54
-0.114893615868705 1.173885337558978 0.103192399413227 92
-0.157953409193186 1.608043559649208 0.084679577201083 66
-0.160777051411045 1.633858477533818 0.028656851370020 62
-0.158023993367426 1.638145047444898 -0.028726660995769 68
-0.160134807146018 1.653985699012879 -0.087087031188259 72
-0.159356839108591 1.639981878329481 -0.144155598504627 71
-0.162328017610073 1.667535537145718 -0.205715451667889 85
-0.162496911277463 1.663249676103588 -0.264687114848071 61
-0.164567266460271 1.678386819059595 -0.327809854056904 67
-0.168022945589908 1.710556403367558 -0.396813659862578 55
-0.168864411959669 1.712976659951064 -0.461215538372692 73
-0.109235801693135 1.175295911318030 0.316276873115280 89
-0.111301091423881 1.195252966661387 0.277139698951642 15
-0.109626999126901 1.172840268898761 0.228970794451854 86
-0.111983328560108 1.195796992053443 0.190224309488921 16
-0.110352657001763 1.173969683103140 0.144780779965315 50
-0.111169599799453 1.178246399003222 0.103541022384218 92
-0.152715938799435 1.612561847844491 0.084888921026055 68
-0.154883958618985 1.632418985290784 0.028621946557145 64
-0.153045079525591 1.646651129261354 -0.028866280247267 68
-0.152876109951753 1.638625610646055 -0.086249655888371 72
-0.154560110002582 1.650446696030573 -0.145027155932103 75
-0.156135375494283 1.664139183808353 -0.205227974294268 77
-0.156504883574940 1.661840088429837 -0.264374245917990 66
-0.159446634763256 1.686769206212390 -0.329336326019916 69
-0.161867234552639 1.709192432091102 -0.396363757753890 60
-0.163249599380898 1.717402035851527 -0.462250814553102 73
-0.105442584904011 1.181460997045182 0.317829787385895 86
-0.106084745368100 1.183988410439910 0.274440286299515 18
-0.106235903728559 1.181037231815429 0.230497266414866 84
-0.107839647068512 1.194194395927650 0.189911440558840 21
-0.106969581354202 1.182255799082123 0.145755734712556 48
-0.107776991386388 1.186564159050851 0.104238268326199 88
-0.144813394234425 1.591231317854728 0.083737529988710 64
-0.148820943982952 1.628966881832984 0.028552136931396 64
-0.146940043740003 1.643191828979633 -0.028796470621518 70
-0.146976721232795 1.637160005971149 -0.086144983975886 70
-0.148976878065443 1.652960502753060 -0.145201467417598 82
-0.149611359101416 1.656765869166114 -0.204253019547027 85
-0.151059719188883 1.666310886310281 -0.264999983778151 74
-0.153557740042972 1.687315502458446 -0.329336326019916 67
-0.155546137294273 1.705865663124181 -0.395463953536515 60
-0.157605945017425 1.721809038258315 -0.463286090733512 73
-0.101317874010332 1.181821862488701 0.317829787385895 82
-0.102786873884354 1.194059301240975 0.276689796842954 38
-0.102450788633041 1.185312792447565 0.231260502396372 80
-0.103121085315633 1.190645608280312 0.189285702698679 47
-0.103701970449419 1.192510133623981 0.146974428146608 50
-0.103287849389589 1.182963465943240 0.103889645355209 50
-0.139187045085409 1.587723530277419 0.083528186163738 61
-0.143483842354517 1.633460489622710 0.028621946557145 64
-0.140176405275678 1.631740591040225 -0.028587041744270 73
-0.142119279115741 1.647612426735107 -0.086668343538315 72
-0.143377977569328 1.655455417236130 -0.145375778903094 67
-0.143827255491916 1.657278016683859 -0.204253019547027 85
-0.145585245425347 1.670763870904134 -0.265625721638312 71
-0.146982538699888 1.680018104932363 -0.327809854056904 69
-0.150101155410464 1.712222112487428 -0.396813659862578 66
-0.151594749671930 1.722348695823458 -0.463286090733512 68
-0.096400463373801 1.172541549892058 0.315241596934870 54
-0.098297493278938 1.190526556941365 0.275789992625578 72
-0.098637114885039 1.189576270945377 0.232023738377878 44
-0.098024748313822 1.177201077821642 0.187095620188116 90
-0.100198991369628 1.200777723906401 0.147949382893849 65
-0.098825162373655 1.179345939054971 0.103541022384218 19
-0.133476534028465 1.586209485576769 0.083423514251252 66
-0.138117178561381 1.637936637392725 0.028691756182894 67
-0.134479713669655 1.632219956885603 -0.028587041744270 70
-0.136367172627336 1.648098477779150 -0.086668343538315 77
-0.136608569099221 1.644032534936857 -0.144329909990122 75
-0.138370853806525 1.661726462369044 -0.204740496920648 85
-0.140081520464046 1.675198892054139 -0.266251459498473 71
-0.140953004765046 1.678564565536373 -0.327428236066151 65
-0.144777091583693 1.720503140389430 -0.398613268297329 69
-0.144605740440126 1.711317418283471 -0.460180262192282 68
-0.092458513582391 1.174796803180241 0.315759235025075 10
-0.094909053809759 1.200575822754424 0.278039503169017 95
-0.093551708802456 1.178170765653682 0.229734030433360 8
-0.094700194583012 1.187381695501943 0.188659964838518 100
-0.095532385856514 1.195183824608905 0.147218166833418 72
-0.095345638191911 1.187627716371647 0.104238268326199 22
-0.127778290966908 1.584674944229542 0.083318842338767 64
-0.131593525330646 1.628442787316568 0.028517232118521 69
-0.129095867923680 1.636666441812316 -0.028656851370020 68
-0.130928895863298 1.652546486991039 -0.086877687363287 72
-0.130868992338319 1.644499371823108 -0.144329909990122 72
-0.133358607160732 1.672093386687653 -0.205959190354699 87
-0.133602188616644 1.667801386195138 -0.264999983778151 74
-0.135722665808507 1.686874078896015 -0.328954708029163 65
-0.139083784597321 1.724882896243089 -0.399513072514704 72
-0.138475306224280 1.709886213047431 -0.459662624102077 62
-0.088126686632057 1.169317781914395 0.314206320754460 10
-0.090277306790249 1.195070192165173 0.276689796842954 92
-0.089438555402926 1.178490144238925 0.229734030433360 8
-0.090254534173738 1.183765706778894 0.188034226978358 100
-0.090754801720235 1.187592728540992 0.146243212086177 68
-0.091351970407862 1.189939843302874 0.104412579811694 21
-0.123320991988510 1.599050740469486 0.084051545726168 66
-0.125754286852048 1.626898465292038 0.028482327305647 67
-0.123682614680879 1.641095179986138 -0.028726660995769 68
-0.124254866024198 1.641044096034121 -0.086249655888371 74
-0.125581182650262 1.650906120898426 -0.144852844446608 82
-0.127370187003990 1.670569360549763 -0.205715451667889 80
-0.128081384328636 1.672196799121618 -0.265625721638312 71
-0.130134787482766 1.691252498737014 -0.329717944010669 56
-0.132462594074712 1.717585998330367 -0.397713464079953 72
-0.132804282445648 1.714211325140341 -0.460697900282487 65
-0.085359677801335 1.190828912159756 0.319900339746716 9
-0.085265132763333 1.183715813236359 0.273990384190828 92
-0.085182577484914 1.176837031793180 0.229352412442607 8
-0.086551763738823 1.189984058839094 0.188972833768599 100
-0.086608776572335 1.187902286696747 0.146243212086177 75
-0.087197748662341 1.190251471666927 0.104412579811694 21
-0.116125655616581 1.577560901030508 0.082900154688823 64
-0.119927435056539 1.625333244130039 0.028447422492772 69
-0.117953369951528 1.641516914766678 -0.028726660995769 70
-0.118813480095944 1.645451973871027 -0.086458999713343 72
-0.120682789380702 1.663257415371208 -0.145898713359580 74
-0.120962026070638 1.663084338561810 -0.204740496920648 82
-0.122531518556033 1.676573943276969 -0.266251459498473 71
-0.125093132990897 1.703444342243598 -0.332007651955188 54
-0.126466293071416 1.718037914950162 -0.397713464079953 69
-0.126392276834144 1.708884687208835 -0.459144986011872 68
-0.081146813805630 1.187250717349141 0.318865063566306 9
-0.080999451238627 1.182062051485163 0.273540482082140 93
-0.081478826832750 1.183003047736240 0.230497266414866 8
-0.081169640817190 1.172542986748201 0.186157013397875 100
-0.082736568444238 1.192158028540145 0.146730689459798 75
-0.083735640269818 1.200486398504542 0.105284137239171 22
-0.109228251876465 1.562036775889407 0.082062779388936 64
-0.114673796675218 1.631726293173197 0.028552136931396 67
-0.111404539603926 1.629948402872906 -0.028517232118521 70
-0.113616606895036 1.653826935950696 -0.086877687363287 74
-0.114464459628470 1.657705574096402 -0.145375778903094 67
-0.115978584581603 1.675378560198605 -0.206202929041510 80
-0.116952651736965 1.680932669318344 -0.266877197358634 65
-0.118872341073319 1.699953676843579 -0.331244415973682 56
-0.121013557229900 1.726244775185845 -0.399513072514704 66
-0.121376763399333 1.722804992024582 -0.462768452643307 57
-0.076296109962013 1.179828861011097 0.316794511205485 11
-0.076493484653879 1.176503688221508 0.272190775756077 91
-0.077733062347761 1.189157474466942 0.231642120387125 8
-0.077646685631218 1.184659496097988 0.188034226978358 100
-0.078444133590411 1.190458773397249 0.146486950772987 79
-0.078622775488269 1.186855152097836 0.104063956840704 24
-0.102848497497667 1.548458460954009 0.081330076001535 70
-0.109110534444464 1.634111891003047 0.028587041744270 69
-0.105455492704951 1.626336337665698 -0.028447422492772 70
-0.108102843974982 1.658199512761759 -0.087087031188259 77
-0.108286364460102 1.652130659702114 -0.144852844446608 82
-0.110129715458184 1.675773194029491 -0.206202929041510 85
-0.111605300775882 1.689214986765049 -0.268128673078956 65
-0.113718346300678 1.712111890589151 -0.333534123918200 52
-0.114987101206374 1.726656674456742 -0.399513072514704 66
-0.114846149776085 1.715508031621221 -0.460697900282487 50
-0.072114758669108 1.172349901399423 0.314723958844665 11
-0.072831609597682 1.180640966497933 0.273090579973452 89
-0.073546118988018 1.185489733872638 0.230878884405619 8
-0.073678585717977 1.180954497096748 0.187408489118197 100
-0.074991812359708 1.198637232234737 0.147461905520228 79
-0.074561486513469 1.185120891013601 0.103889645355209 26
-0.097352848606883 1.538807556989000 0.080806716439105 62
-0.103184596740382 1.626481995949861 0.028447422492772 69
-0.100307337628357 1.630668944172976 -0.028517232118521 70
-0.102603461847943 1.658548877367090 -0.087087031188259 74
-0.103054536224866 1.656457755701380 -0.145201467417598 82
-0.104819260997760 1.680091663695714 -0.206690406415130 82
-0.105879357534725 1.687604295057382 -0.267815804148875 63
-0.108534616354909 1.720317015593469 -0.335060595881213 56
-0.109260669098467 1.727028491681019 -0.399513072514704 66
-0.109401984604700 1.719735351592807 -0.461733176462897 60
-0.068375105955776 1.182249485005126 0.317312149295690 11
-0.069841919621390 1.200342500974937 0.277589601060329 89
-0.068604477062091 1.172019938390145 0.228207558470348 10
-0.069581227729803 1.185160572341261 0.188034226978358 100
-0.070339183091676 1.190965143308245 0.146486950772987 79
-0.070896833903306 1.193329468802006 0.104586891297190 29
-0.091949779394423 1.543141482835778 0.081016060264077 57
-0.097267206702225 1.622840041898251 0.028377612867023 69
-0.095077859184990 1.638994504433238 -0.028656851370020 68
-0.096115247059090 1.646933726854648 -0.086458999713343 74
-0.098205974646329 1.672719107100836 -0.146595959301561 66
-0.098720625964888 1.676483996363759 -0.206202929041510 80
-0.100104682424773 1.689935521618962 -0.268128673078956 65
-0.102996030277901 1.728524504745889 -0.336587067844225 56
-0.102999045507732 1.723508821840439 -0.398613268297329 66
-0.103977908455176 1.729748612596777 -0.464321366913922 68
-0.064138812650368 1.176682760223919 0.315759235025075 12
-0.064800281643885 1.185012317602579 0.273990384190828 92
-0.065268114308249 1.185974288924622 0.230878884405619 11
-0.065661604487503 1.189340981957343 0.188659964838518 100
-0.065961272426955 1.187239345838456 0.145999473399367 83
-0.067064559300313 1.199537523137933 0.105109825753676 28
-0.084812682671782 1.507544009586592 0.079131965839331 62
-0.091827188020872 1.627162718259516 0.028447422492772 69
-0.089356121451692 1.639316402781558 -0.028656851370020 68
-0.090365789947689 1.647259197993958 -0.086458999713343 77
-0.092146838290935 1.669072999245149 -0.146247336330570 69
-0.092868003290544 1.676818381942281 -0.206202929041510 77
-0.094534869533316 1.696191603960505 -0.269067279869197 63
-0.097071660212123 1.730833671255072 -0.336968685834978 60
-0.096982249494192 1.723857855398863 -0.398613268297329 66
-0.098376067240595 1.737816079747652 -0.466391919274742 68
-0.060621501725177 1.188475538143482 0.318865063566306 13
-0.060763033465168 1.187177485896675 0.274440286299515 86
-0.060925818160384 1.182273586371546 0.230115648424113 11
-0.061101605595254 1.181671973095798 0.187408489118197 100
-0.061816631865550 1.187462360579023 0.145999473399367 83
-0.062772709763054 1.197774655247921 0.104935514268180 31
-0.078602833246016 1.489880509044537 0.078189918626958 77
-0.086146770732925 1.627473341731227 0.028447422492772 69
-0.083429559753603 1.635624128460947 -0.028587041744270 68
-0.084820111253437 1.651553858327145 -0.086668343538315 77
-0.086525893943956 1.673363945587945 -0.146595959301561 68
-0.087322810215728 1.683079613805288 -0.206934145101940 68
-0.089025635692482 1.704402008496260 -0.270318755589519 61
-0.090513876934231 1.721359240591592 -0.335060595881213 62
-0.090861603304235 1.722239850563885 -0.398163366188641 64
-0.092616714093840 1.743936288121980 -0.467944833545357 62
-0.055899756056136 1.180970979720900 0.316794511205485 15
-0.056711457948158 1.189328884226015 0.274890188408203 89
-0.056986928552671 1.186401041262924 0.230878884405619 15
-0.057087240551088 1.179895027480278 0.187095620188116 100
-0.058248913260829 1.199567443091165 0.147461905520228 83
-0.058299330244725 1.192016443372357 0.104412579811694 39
-0.071379171559399 1.454251159552680 0.076305824202212 77
-0.080662764641922 1.631758648168479 0.028517232118521 72
-0.077719657793387 1.635905387189855 -0.028587041744270 70
-0.078863642557725 1.647849922550927 -0.086458999713343 72
-0.080684236573749 1.673655782616296 -0.146595959301561 66
-0.082118765943914 1.697253583545189 -0.208640315909612 66
-0.083844838738802 1.720486663473452 -0.272821707030163 57
-0.084600907189296 1.723625599617104 -0.335442213871966 60
-0.085041060627382 1.726439284780345 -0.399063170406017 60
-0.085188630299058 1.717236251056644 -0.460697900282487 50
-0.051777057473992 1.181158911404140 0.316794511205485 24
-0.051957424309908 1.175891714252819 0.271740873647389 61
-0.052670573791308 1.182670114193660 0.230115648424113 30
-0.052497631706072 1.174176121809687 0.186157013397875 95
-0.053882571598624 1.195797301363779 0.146974428146608 60
-0.053595776761059 1.180270653617787 0.103366710898723 64
-0.066373712280519 1.450489522882637 0.076096480377240 82
-0.074507582052344 1.622042327165623 0.028342708054148 67
-0.072536345904793 1.648153282253360 -0.028796470621518 68
-0.073376629084510 1.654101059214270 -0.086773015450801 67
-0.074841596091583 1.673927226677109 -0.146595959301561 63
-0.076549790562398 1.705462273951642 -0.209615270656854 61
-0.077481650423740 1.712875419671242 -0.271570231309841 54
-0.078673217015972 1.725871628736448 -0.335823831862719 56
-0.079637706253786 1.740352536849519 -0.402212485166831 50
-0.080083656556934 1.736821165832355 -0.465874281184537 43
-0.047575862436108 1.179402169256052 0.316276873115280 60
-0.048723965248278 1.197484334567049 0.276689796842954 18
-0.047978458412259 1.169115540781139 0.227444322488841 68
-0.049665562874636 1.200001684975404 0.190224309488921 35
-0.049131088796017 1.182094441879931 0.145268257338936 24
-0.049892699852088 1.190403755839935 0.104238268326199 83
-0.060298157553484 1.426766639683920 0.074840417427410 91
-0.069269067080932 1.632282011117576 0.028517232118521 69
-0.066944673038685 1.652392552820434 -0.028866280247267 68
-0.067276104671539 1.646364739603678 -0.086354327800857 66
-0.069326215120710 1.682141072438968 -0.147293205243542 61
-0.070678238441087 1.707702486620009 -0.209859009343664 55
-0.071831630262346 1.721030079070962 -0.272821707030163 54
-0.073143650933025 1.737904842195685 -0.338113539807237 54
-0.073397688220216 1.736725917199685 -0.401312680949455 51
-0.074431756573830 1.746740629367289 -0.468462471635563 41
-0.043458690736441 1.179561054685977 0.316276873115280 86
-0.043457237090774 1.168436212157017 0.269941265212638 7
-0.044265456321717 1.179085255731487 0.229352412442607 96
-0.045177285394605 1.192271898931548 0.188972833768599 23
-0.044777977068504 1.176307772850332 0.144537041278505 23
-0.045737111333677 1.190570661516235 0.104238268326199 92
-0.056632685162425 1.460896347828590 0.076619839939670 71
-0.063570917557919 1.632513860864018 0.028517232118521 72
-0.061324286400780 1.656612819762149 -0.028936089873016 73
-0.062274613144448 1.666548207989795 -0.087401046925716 69
-0.064204959849485 1.702282555400902 -0.149036320098495 65
-0.065393296116993 1.725791814576590 -0.212052657524957 61
-0.066276591763998 1.733113936358339 -0.274698920610645 57
-0.067228200185220 1.742073161474822 -0.338876775788744 52
-0.067259448678932 1.735024264701639 -0.400862778840767 48
-0.069240127184502 1.770154308616416 -0.474674128718023 34
-0.039805785789445 1.187421751573729 0.318347425476101 93
-0.039640891275629 1.176371326294647 0.271740873647389 7
-0.040483432747159 1.189043174869771 0.231260502396372 94
-0.040743580696476 1.184525496713575 0.187721358048277 23
-0.041014554935035 1.186376446193148 0.145755734712556 23
-0.041302831974349 1.182758357719162 0.103541022384218 92
-0.048646456858996 1.379248396946592 0.072328291527748 100
-0.058155332456524 1.640719580603714 0.028656851370020 83
-0.055541254908462 1.656816788817054 -0.028936089873016 84
-0.056727347076504 1.674739890942089 -0.087819734575660 69
-0.058398780214701 1.706478749136233 -0.149384943069486 69
-0.059368760078722 1.726009565663910 -0.212052657524957 48
-0.060363681554980 1.737283096788506 -0.275324658470806 52
-0.061077961429442 1.740335171963992 -0.338495157797990 16
-0.061752192964856 1.750828706838592 -0.404461995710269 32
-0.063267019204823 1.776177099223846 -0.476227042988638 6
-0.035107513308494 1.175973723376184 0.315241596934870 93
-0.035534347534795 1.176502531971194 0.271740873647389 6
-0.036572470344783 1.197026599111934 0.232786974359385 91
-0.036608566871167 1.184660501816512 0.187721358048277 23
-0.036996399772010 1.190480654745228 0.146243212086177 22
-0.037048818281496 1.178912513194803 0.103192399413227 92
-0.044656304376336 1.405361071706888 0.073689026390065 74
-0.052938665731396 1.656901988765009 0.028936089873016 65
-0.050897948818614 1.694977663968330 -0.029599281317633 58
-0.051912031546984 1.708865451704668 -0.089599157087920 12
-0.171925489453984 5.563543017905410 -0.683443277816067 20
-0.187079262896388 5.823460388810711 -1.561196480058405 2
-0.057935023721892 1.803419099187402 -0.483473976251509 1
-0.031105162698423 1.172221334412341 0.314206320754460 97
-0.031791595315397 1.190255719912408 0.274890188408203 7
-0.032075216957506 1.185371752081347 0.230497266414866 91
-0.032364863292085 1.180831801964407 0.187095620188116 23
-0.032950090132983 1.194571218609791 0.146730689459798 20
-0.032933419934808 1.179034655366304 0.103192399413227 96
-0.038438909865426 1.367582364216764 0.071700260052833 100
-0.047097794544581 1.655077798549409 0.028901185060141 54
-0.045034106255222 1.697143996332125 -0.029634186130507 45
-0.044658437514628 1.661119343381916 -0.087087031188259 3
-0.047850107189285 1.723839862242718 -0.273134575960243 3
-0.118538404291894 4.217368072079590 -0.820097062128390 1
-0.159711673069761 5.647139614609176 -1.304266213085729 2
-0.166750452897798 5.824077938790967 -1.561196480058405 2
-0.026896879096706 1.176190160414892 0.315241596934870 89
-0.027817561043228 1.198152302347498 0.276689796842954 7
-0.027752286715569 1.177625656085220 0.228970794451854 86
-0.028317985485322 1.192791415041003 0.188972833768599 26
-0.028827865079708 1.196663474693668 0.146974428146608 20
-0.028914977130146 1.183126020667787 0.103541022384218 92
-0.033419193007000 1.357724937671596 0.071176900490404 81
-0.040821171621003 1.635241391178727 0.028552136931396 54
-0.038372644210719 1.665304219449163 -0.029075709124514 48
-0.039140015628697 1.673245387550368 -0.087715062663174 13
-0.040194686051018 1.693053924219752 -0.148164762671019 3
-0.040626650729721 1.698753276325795 -0.208640315909612 1
-0.041592901170769 1.714122411042607 -0.271570231309841 4
-0.042608652625545 1.731066043939821 -0.336587067844225 3
-0.087843145593002 3.543669701965193 -0.818371935702981 2
-0.146419611097563 5.824624524219504 -1.561196480058405 2
-0.048981899958679 1.742681641696918 -0.338876775788744 1
-0.099881774155045 3.531653715517915 -0.815672523050854 2
-0.086968986209627 3.037557890490116 -0.814244715892530 4
-0.043124754818335 1.739690513389180 -0.401762583058143 1
-0.076850876779656 3.057155378593990 -0.819421096794581 4
-0.023147387391506 1.183998816877068 0.317312149295690 93
-0.023366042601438 1.184603576187164 0.273540482082140 7
-0.023720241766042 1.181641072996113 0.229734030433360 88
-0.024443061079894 1.196828692170011 0.189598571628760 23
-0.024446155108796 1.186833455586250 0.145755734712556 19
-0.024951822273002 1.191187554494091 0.104238268326199 92
-0.028023617506113 1.315895361853187 0.068978790328200 100
-0.035155790511245 1.637373155831572 0.028587041744270 59
-0.032692341920133 1.657425085330447 -0.028936089873016 51
-0.033020906348482 1.659393771507759 -0.086982359275773 29
-0.034808932496055 1.719079669190693 -0.150430811982458 21
-0.034818248090923 1.704838775720565 -0.209371531970043 5
-0.035650268427209 1.716232104980267 -0.271883100239921 8
-0.036897507895242 1.746906762341890 -0.339640011770250 4
-0.076676145970663 3.600455395366540 -0.831419096854925 1
-0.036956530150858 1.707356937127897 -0.457592071741257 1
-0.019045337689237 1.186004005626684 0.317829787385895 86
-0.019405657325560 1.182726069550142 0.273090579973452 8
-0.019999006960004 1.193491107863719 0.232023738377878 91
-0.019930791148835 1.177155786864585 0.186469882327955 23
-0.020613233806864 1.192862384286325 0.146486950772987 25
-0.020793649735071 1.191267395485602 0.104238268326199 88
-0.023110128376599 1.298012682354301 0.068036743115827 86
-0.029762167486416 1.639480099776082 0.028621946557145 57
-0.026679452245567 1.643533081490914 -0.028691756182894 54
-0.027650433911136 1.667482087010477 -0.087401046925716 50
-0.028741250062355 1.715206482347353 -0.150082189011467 57
-0.029028800285252 1.697005655664064 -0.208396577222802 12
-0.030475967808870 1.745967026430340 -0.276576134191128 39
-0.030591803862962 1.735247219863814 -0.337350303825731 12
-0.031001906313028 1.724356348215266 -0.398163366188641 3
-0.030961453156791 1.705544004275759 -0.457074433651052 1
-0.036304993357322 1.704761077351581 -0.393664345101764 2
-0.014989237611906 1.176402166913070 0.315241596934870 89
-0.015201550282339 1.176940869567527 0.271740873647389 9
-0.015780742037598 1.189627482959317 0.231260502396372 86
-0.016242221057705 1.193016956439672 0.188972833768599 26
-0.016586090384682 1.202851588632253 0.147705644207039 19
-0.016674155543682 1.179376657917328 0.103192399413227 92
-0.018458455165786 1.274117587269503 0.066780680165996 78
-0.023980500603775 1.635575039876631 0.028552136931396 57
-0.021048369905514 1.629615816773340 -0.028447422492772 54
-0.021751236807934 1.661577182286800 -0.087087031188259 54
-0.022464212691501 1.671463752453030 -0.146247336330570 50
-0.023104968238280 1.697096646347676 -0.208396577222802 31
-0.024298478170721 1.740137217993717 -0.275637527400887 44
-0.024724962321523 1.727486911727912 -0.335823831862719 34
-0.025321337501545 1.747836487622508 -0.403562191492894 9
-0.025276836642774 1.703705659424933 -0.456556795560847 2
-0.010864866557221 1.174515553070216 0.314723958844665 86
-0.011354708955038 1.182830759540142 0.273090579973452 11
-0.011757584886865 1.181820643946649 0.229734030433360 82
-0.012017727122632 1.187140557692920 0.188034226978358 28
-0.012576412120734 1.200914992944343 0.147461905520228 20
-0.012599684338571 1.183412229376644 0.103541022384218 92
-0.013966921215500 1.270179980274264 0.066571336341025 100
-0.018420494437800 1.623648168873055 0.028342708054148 64
-0.015322128102491 1.625680147962194 -0.028377612867023 64
-0.016124005191164 1.649657194033101 -0.086458999713343 59
-0.016510654238605 1.659578239239232 -0.145201467417598 53
-0.017579270979020 1.707088869256460 -0.209615270656854 60
-0.018002079926244 1.690826608545779 -0.267815804148875 42
-0.018779733223822 1.735415251208981 -0.337350303825731 48
