ply
format ascii 1.0
element vertex 831
property double x
property double y
property double z
property uchar intensity
end_header
10.827726606774775 -3.572544175921663 1.805879464424425 1
10.843902929532906 -3.575782924149959 1.401984926532817 1
6.837100955665080 -2.287661978728686 1.931825352645215 1
5.297090498575288 -1.770325887691315 1.289419443499034 0
9.746369984882618 -3.255416262749279 1.997388563601671 1
10.838306201299746 -3.615932502867417 1.809633891585391 1
10.831985582587976 -3.611722941254075 1.401984926532817 1
6.851436936234080 -2.317750732441516 1.938037009727675 1
5.257959276980156 -1.776653092149685 1.281321205542655 0
9.739241154072360 -3.288974783826381 1.998151799583177 1
10.844973337245545 -3.658167456496779 1.812762580886195 1
10.842522031709851 -3.655233025632196 1.404909790774540 1
6.851024985842713 -2.342958661796211 1.940107562088496 1
5.187494757150560 -1.772031319146251 1.265574631738585 0
9.743144654683698 -3.326327676652550 2.001204743509202 1
10.844000719239368 -3.697936021279169 1.814639794466678 1
10.819067449894003 -3.687325728238841 1.403447358653678 1
6.842391596053429 -2.368053186434894 1.940107562088496 1
5.153338191903038 -1.781482059847848 1.258826100108269 0
9.730887611470646 -3.362015744681067 2.001204743509202 1
10.847180022294994 -3.743456244170667 1.817455614837402 1
10.835505703863141 -3.737311073904684 1.407347177642643 1
6.823560189728235 -2.386903144534961 1.937001733547265 1
5.151081593696726 -1.799846954896374 1.259725904325644 0
9.756754999614683 -3.407211377329217 2.008837103324264 1
10.845897584501026 -3.783309879715884 1.819332828417885 1
10.849295004205784 -3.782371146587598 1.410759519257987 1
7.025389110798602 -2.427267660061503 1.444805712991197 1
6.822471845472486 -2.413284191254411 1.939072285908085 1
7.063030911241216 -2.495602530989894 1.729423705795634 0
9.752207035779641 -3.443862980208164 2.010363575287276 1
10.866157063779298 -3.832974217443327 1.824964469159333 1
10.873469042607738 -3.833419691078706 1.415634292994193 1
6.858090526170182 -2.451501429277679 1.951495600073006 1
9.499274682563829 -3.391883245615867 2.328693314567690 0
9.751827382752309 -3.480142735362809 2.012653283231795 1
10.879436334081701 -3.878272716307881 1.829344634180460 1
10.860697178791282 -3.869456336372579 1.415634292994193 1
5.115368901377614 -1.807429096325668 1.252527470586640 0
5.042606614998341 -1.802536329431758 1.434892786048375 1
7.054716360080246 -2.519010663861551 1.729423705795634 0
4.937862882789518 -1.785532150621785 1.406940329177303 1
9.453787887113215 -3.414760471230566 2.320595076611311 0
9.761165807583266 -3.523861279117699 2.017232699120832 1
10.880014625459863 -3.923482658663555 1.831847585621104 1
10.853911964494534 -3.911929102912760 1.416609247741434 1
4.899253008038831 -1.789963784661463 1.397622843553612 1
9.435089615652410 -3.443419161439965 2.318795468176560 0
9.771559229259985 -3.564284219961049 2.021812115009869 1
10.878080131743136 -3.963598113856695 1.833724799201586 1
10.881915539001895 -3.962844339421348 1.421971498851261 1
6.997782503489387 -2.527637743148178 1.717726250969753 0
7.036958572481153 -2.568200088586578 1.729423705795634 0
4.845545056047484 -1.790498933245744 1.384164253208281 1
9.421798314768248 -3.479621831836624 2.318795468176560 0
9.787900372657111 -3.610947087483742 2.027918002861918 1
10.880161430987297 -4.009589229374684 1.836540619572310 1
10.897121991025919 -4.013679521045482 1.425871317840226 1
4.802757407423749 -1.794722059685602 1.373811491404180 1
9.438805771398481 -3.523392963900894 2.325993901915564 0
9.786273334234259 -3.649206883507369 2.030207710806437 1
10.861690464215959 -4.048060375867435 1.835914881712150 1
10.868162449011747 -4.046152345716319 1.423921408345743 1
7.027045541709185 -2.595201071319360 1.729423705795634 0
7.017943788250631 -2.619714226931341 1.729423705795634 0
4.782320468610872 -1.805180868320508 1.369670386682540 1
9.411862948385361 -3.550816070663281 2.322394685046062 0
9.777149842684565 -3.684729836364735 2.030970946787943 1
10.884465613664547 -4.099876299144224 1.842172260313759 1
10.876267577023564 -4.092453702534610 1.426846272587467 1
4.721840528579194 -1.801207237945997 1.354141243976388 1
9.373918549964165 -3.573928661882029 2.316096055524434 0
9.773401627029996 -3.722329842819355 2.032879036741708 1
10.888549489506451 -4.144872786940560 1.845300949614563 1
10.910158181813063 -4.148738792082613 1.433183478444534 1
4.671948277988117 -1.801818049811439 1.341717929811468 1
4.742520387187538 -1.827133983419202 1.173344699457600 0
9.802490275166313 -3.772641536105121 2.041656250529030 1
10.907933164708544 -4.193717517931970 1.850932590356012 1
4.626030039011582 -1.802683681923754 1.330329891826957 1
4.654393854662838 -1.811865420146981 1.153099104566652 0
4.673228798420575 -1.817319288788663 0.974652348383391 3
4.672944130451492 -1.816269730733736 0.794061344544212 1
4.580163165527159 -1.803250887517012 1.318941853842446 1
4.615397624124112 -1.815262456696338 1.145000866610273 0
4.615693039386820 -1.813518487085160 0.963967044642304 3
4.630119303512782 -1.817321145665626 0.787803965942603 1
4.645818673242444 -1.822547445584097 0.612759058641082 1
4.563070315735704 -1.814943758955401 1.315836025301216 1
4.578245802866569 -1.819129074393184 1.137352530762581 1
4.583787969131872 -1.819478806588547 0.958624392771761 3
4.587021904928505 -1.818909281828459 0.781546587340993 1
4.639428491505003 -1.838753275527992 0.612759058641082 1
4.528343561424874 -1.818546564797625 1.307553815857935 1
4.541123599876449 -1.822758591431367 1.129704194914890 0
4.551897840121692 -1.825238607842773 0.953281740901218 3
4.564141256931869 -1.828298930521558 0.778730766970269 1
4.585067091539863 -1.835752789060711 0.606421852784014 1
4.500167326757809 -1.826413594171670 1.301342158775474 1
4.505838164379520 -1.826883480835036 1.122505761175886 2
4.509105731495235 -1.826375851309965 0.945649381086156 3
4.526601952202484 -1.831623501722171 0.773411995158901 1
4.534464324368661 -1.833883969759529 0.600572124300567 1
4.447607761417614 -1.822283489127155 1.287883568430143 1
4.503040460344508 -1.844077695799112 1.123405565393262 3
4.506337161902455 -1.843591207809384 0.946412617067662 7
4.507380950657300 -1.842181784488906 0.771221912648338 1
4.517009189325831 -1.845196889299984 0.599109692179705 1
4.412340049552320 -1.826748928888589 1.279601358986862 1
4.509181533292548 -1.864998660003407 1.126554880154076 1
4.485358649710249 -1.853312253927965 0.943359673141637 10
4.500598741680910 -1.858689787950438 0.771221912648338 6
4.519715956273274 -1.864738454592262 0.600328385613756 5
4.399128203833376 -1.838391167395869 1.277530806626042 1
4.549396694911017 -1.900255597083035 1.138252334979957 0
4.475238381525542 -1.867445684664932 0.942596437160131 3
4.539992613565618 -1.892606161390374 0.779043635900350 1
4.507682095404355 -1.878213342790067 0.599597169553326 1
4.364206526623422 -1.841718054297975 1.269248597182762 1
9.276482484160846 -3.910910074037530 2.324194293480813 0
4.584336051594857 -1.929902556424234 0.787803965942603 1
4.318652233540863 -1.840279788332736 1.257860559198251 1
9.262085973831946 -3.944883813180911 2.324194293480813 0
9.870798288959444 -4.200074997866124 2.085160701474882 1
4.255415946465547 -1.830910979434565 1.241296140311690 1
9.238211235509713 -3.970958912704630 2.321494880828687 0
9.892895187115991 -4.248278006363747 2.092793061289943 1
4.164263727473288 -1.808081356811525 1.216449511981847 1
9.252896180963754 -4.015595063125034 2.328693314567690 0
10.970079899893904 -4.751724530017635 1.893482764846955 1
11.043084892550260 -4.781058044203426 1.477543919444008 1
3.998687219094021 -1.752804389711790 1.169862083863394 6
3.996774668169726 -1.750303078964164 1.007330821351827 4
3.994782420710691 -1.747768999573742 0.847573557462612 9
3.999846738256999 -1.749153033021745 0.691440335477820 1
3.962512014756088 -1.753462008793531 1.161062236329908 22
3.973983734735005 -1.756050742254736 0.844520613536587 32
3.984681128197896 -1.759115523171640 0.689875990827418 7
3.973713341736218 -1.753444930567723 0.533300246740925 1
3.944020038102720 -1.761767701328158 1.157438769698473 33
3.952425682422001 -1.763867758425173 0.999232583395448 38
3.962759299046793 -1.766820892449901 0.843375759564328 74
3.951451655698566 -1.760952619545293 0.685182956876211 18
3.978757692323335 -1.771457056514343 0.534762678861787 13
3.909668501858644 -1.762819164179027 1.149156560255192 33
3.915731227665423 -1.764730470270457 0.991584247547757 43
3.934775021423346 -1.771660866142239 0.838796343675291 99
3.945280710349298 -1.774735031533471 0.685182956876211 30
3.968617251951265 -1.784399931794880 0.534275201488167 13
3.882391342660735 -1.766853251049573 1.142944903172732 36
3.888569849373397 -1.768026820921718 0.986185422243504 50
3.903853644696763 -1.773331797607216 0.833453691804748 99
3.910283160082736 -1.775429182815289 0.680177053994924 28
3.930137907470947 -1.782789621986146 0.529887905125581 13
3.855133915453889 -1.770718504209592 1.136733246090271 36
3.867895473073877 -1.775762641341272 0.982586205374002 50
3.866991494257373 -1.773713536796934 0.826966185961945 100
3.886103966337242 -1.780838419027111 0.677048364694119 24
3.894700885311590 -1.783955590028926 0.525988086136617 8
3.833155166509381 -1.776852494859755 1.132074503278426 37
3.823082779952748 -1.770562456940723 0.972688358982872 45
3.836143652717679 -1.774985251753100 0.821623534091402 100
3.858349047202076 -1.784442182766350 0.673293937533154 22
3.876149506403085 -1.791032517088994 0.524281915328945 3
3.797181932711921 -1.776306115974172 1.123274655744940 33
3.793618830982816 -1.773832374278441 0.966839631569932 46
3.818939841663457 -1.784047804036373 0.819333826146883 100
3.812716504717398 -1.779519449799444 0.666410821071383 27
3.860564217907707 -1.801031033966816 0.523063221894893 1
3.757765610786648 -1.773881062219152 1.113439532031044 30
3.768327703840240 -1.777258726694907 0.961890708374367 50
3.784587244354289 -1.783312566615161 0.813227938294834 100
3.786823708090314 -1.783558790837536 0.662969262840499 30
2.622401217772236 -1.234008344091125 0.355858482743031 1
2.727220575185501 -1.272303377210482 0.369507849204407 1
3.728877467418167 -1.776187288720968 1.106710236858379 30
3.744193519485300 -1.782681139676162 0.957391687287489 48
3.747886550113355 -1.782834900411848 0.806740432452031 100
3.760949407872736 -1.787439162118278 0.659527704609613 28
2.630412124025461 -1.249574157987845 0.357564653550703 4
3.712207585866452 -1.784171558280909 1.103604408317149 33
3.717180927806463 -1.784964856988744 0.951992861983237 48
3.711862451348773 -1.780816777695125 0.800252926609229 100
3.733313237094313 -1.790306588917286 0.655773277448648 27
2.608351715823380 -1.249712747402288 0.355127266682600 4
3.692051018650497 -1.790375301362449 1.099463303595508 36
3.686063362532317 -1.786677168960805 0.945694232461608 54
3.694708752929377 -1.789275253471446 0.797963218664710 100
3.703924965866739 -1.792142617397344 0.651705981357602 21
2.580521924255497 -1.248028724607394 0.351958663754066 4
3.661484737802311 -1.791366214713825 1.092216370332638 33
3.655607482165728 -1.786909577318053 0.939395602939980 50
3.678170324800730 -1.796348163940803 0.795673510720192 100
3.660368412322123 -1.786862885342723 0.645135733825912 19
2.576369123278605 -1.256579181597834 0.351958663754066 4
3.620874702593302 -1.786403515631750 1.081863608528537 36
3.631870013483593 -1.791040085089684 0.934896581853103 48
3.648983290684844 -1.797896193686312 0.790712476840402 100
3.643789209416981 -1.793756581442431 0.643258520245429 13
2.575529428625056 -1.267317592354219 0.352446141127686 4
3.590404186033000 -1.786980912645033 1.074616675265666 36
3.606716796062615 -1.793529287510296 0.929947658657538 46
3.618386315810852 -1.797757132534753 0.785369824969858 100
3.630428772051819 -1.802950328167269 0.642007044525107 12
2.571312690908112 -1.275851387575797 0.352446141127686 5
3.568606385544097 -1.791701562156221 1.069957932453821 31
3.580960123642501 -1.797121568585731 0.924998735461973 45
3.580183052069081 -1.795167393868216 0.778500701136303 100
3.592322716604156 -1.799685485085914 0.636375403783659 10
2.552419361249256 -1.278156405112795 0.350496231633204 6
3.551989856953992 -1.798910404793202 1.066852103912590 34
3.548898904863655 -1.795788719816634 0.918250203831657 47
3.556689738300190 -1.798171848861694 0.774684521228772 100
3.577203567576329 -1.807759263652463 0.634811059133257 10
2.549938829225010 -1.287508229267100 0.350739970320014 6
3.521603625221499 -1.798994382748088 1.059605170649720 31
3.517995228556930 -1.796376880825439 0.911951574310029 51
3.537833580722884 -1.804950188066757 0.772013195293500 100
3.532153343424423 -1.800498613536826 0.627927942671487 10
2.564658780344377 -1.306758917854802 0.353421095874928 4
3.491260380559776 -1.798888294291130 1.052358237386849 31
3.501623170510255 -1.802681246994636 0.909252161657902 51
3.512624488565541 -1.806794044115848 0.767815397395216 100
3.508279163863588 -1.803784688200907 0.624799253370682 11
2.567374238001718 -1.318884741495065 0.354396050622169 3
3.459246883427671 -1.797701608270424 1.044593666033774 36
3.472511097176210 -1.803825078820694 0.903403434244962 50
3.476355583567500 -1.804281490827699 0.761327891552414 100
3.480918073211657 -1.805107390552316 0.621044826209717 12
2.555473457266770 -1.324631623582792 0.353421095874928 1
3.446106356254463 -1.806178434939429 1.042523113672954 36
3.452699506584951 -1.808098030423508 0.899804217375460 56
3.447739425604415 -1.803967302848746 0.756366857672624 100
3.472845439471323 -1.816331575113703 0.620731957279636 15
2.572179046362048 -1.344131135776776 0.356345960116651 1
3.420993339640823 -1.808266019853477 1.036829094680698 34
3.415034861159280 -1.804353996125780 0.891705979419081 56
3.430687330319718 -1.811092513882630 0.754077149728105 100
3.445517463615650 -1.817383871186339 0.616977530118671 12
2.567235282644448 -1.353549614995335 0.356345960116651 1
3.401022286828562 -1.812926617348243 1.032687989959058 39
3.390112671564660 -1.805591868982171 0.886757056223516 52
3.409064508107681 -1.814158450886926 0.750642587811327 100
3.407760759158904 -1.812701523108066 0.611345889377222 12
2.559226844641498 -1.360192154780400 0.355858482743031 1
3.364044640750857 -1.808323108819831 1.023370504335367 34
3.362872550231962 -1.806936600904207 0.881358230919263 51
3.385095018447263 -1.817354679896314 0.746826407903796 100
3.377042081999858 -1.811513010126879 0.606965724356096 15
2.589213675334948 -1.388324191652790 0.360733256479237 1
3.332236108989903 -1.806245582094250 1.015605932982291 33
3.350007806396907 -1.814366095002034 0.879558622484512 52
3.347970179467265 -1.811751333696025 0.739957284070241 100
3.355060888004403 -1.814831488402594 0.604149903985372 20
2.560146712830658 -1.383688755675641 0.357320914863892 1
3.314044689501533 -1.811380491168304 1.011982466350856 34
3.327944007372908 -1.818223251710543 0.875509503506323 56
3.322351963613267 -1.813662429556020 0.735759486171957 100
3.336566229498207 -1.819910483925551 0.601959821474808 24
3.297550087466200 -1.817342936909157 1.008876637809626 34
3.294583653029946 -1.814209039583749 0.868311069767319 56
3.302558713537210 -1.817098529686670 0.732706542245932 100
3.319808010919131 -1.825834503546231 0.600082607894326 24
3.277994889560390 -1.820763579536446 1.004735533087985 31
3.272897091144495 -1.817184611203846 0.864261950789129 58
3.296195735665107 -1.828615540547868 0.732706542245932 100
3.287819521469176 -1.822468120293475 0.595389573943119 27
3.237908610865436 -1.813315949264564 0.994382771283885 34
3.253248292260676 -1.820415119511203 0.860662733919628 57
3.267836892868047 -1.827080873049525 0.727745508366142 100
3.252123941453331 -1.817550636955584 0.590070802131751 26
3.265290100140449 -1.823413430008172 0.459203685950596 1
3.221465864899438 -1.818908382540059 0.991276942742654 34
3.227886174447097 -1.821790525540572 0.855713810724062 53
3.230336956945735 -1.821687235178915 0.720876384532586 100
3.245759692698242 -1.828891594853837 0.590070802131751 28
3.256855413620944 -1.834394881582363 0.458959947263785 5
3.206702554203100 -1.825363876042073 0.988688752291629 37
3.209969743321987 -1.825740405200123 0.852564495963248 57
3.202088947159484 -1.819778993498593 0.715915350652796 100
3.222180095304019 -1.830453055834029 0.586942112830946 26
3.216227036619920 -1.825586564394434 0.454085173527579 5
3.188582419262886 -1.829815438385751 0.985065285660194 39
3.177900917050002 -1.822948467700694 0.845815964332932 56
3.188584401377849 -1.827597889387656 0.714388878689784 100
3.212342663847714 -1.839725990049848 0.586316374970785 24
3.206068791237179 -1.835389886617771 0.453597696153959 5
3.150404153694483 -1.822554196619334 0.975230161946298 38
3.151592552341545 -1.821773700669805 0.840417139028680 53
3.172305995635569 -1.832270024062645 0.712099170745265 100
3.175108176042945 -1.833149560144575 0.580684734229337 22
3.175891976869678 -1.832124258289745 0.450185354538615 5
3.125666236437396 -1.822834673222200 0.969536142954043 41
3.136476438140231 -1.828405474600915 0.838167628485241 51
3.145211725073616 -1.832027019710036 0.707519754856228 100
3.141373653452233 -1.828323125854376 0.575678831348050 22
3.164008055395188 -1.840757453549813 0.449454138478184 5
3.100964971440702 -1.822964784622730 0.963842123961787 39
3.111912698909224 -1.827939261442487 0.833218705289676 53
3.113721806484980 -1.827540316671740 0.701795484994932 100
3.129861108254098 -1.836278605580773 0.574740224557808 23
3.133911209901000 -1.837184597123604 0.446041796862840 5
3.081287007876255 -1.825899320543829 0.959701019240147 38
3.100162055735945 -1.836353233105863 0.831868998963613 52
3.086728543009487 -1.826940791254893 0.697216069105895 100
3.104729044540540 -1.836131638483328 0.571298666326923 22
3.091271138923099 -1.827444500634666 0.440923284439824 3
3.066602061410145 -1.831690702581179 0.957112828789122 34
3.062261471661965 -1.827648063079229 0.823320858898546 56
3.077280854562853 -1.835155577430406 0.696452833124389 96
3.084726679162527 -1.838866158693975 0.568795714886279 24
3.068139423868170 -1.827526906323573 0.438485897571721 3
3.055545419819039 -1.838861451330219 0.955559914518507 37
3.044174039067786 -1.831294366848883 0.820171544137732 57
3.059077591710555 -1.838806000690870 0.693781507189117 100
3.059984354112141 -1.837897284981229 0.565354156655394 23
3.048126168396168 -1.830051144818616 0.436535988077238 3
3.022680175252270 -1.833485616961400 0.947277705075226 32
3.026418798974148 -1.834308569984846 0.817022229376918 56
3.037849392854768 -1.839786988073638 0.690346945272339 97
3.034961955824611 -1.837314387476750 0.561912598424509 24
3.036945194845790 -1.837066706516245 0.435804772016807 5
3.002755375435543 -1.836488363253750 0.943136600353586 33
3.011040069720509 -1.840833266535081 0.814772718833479 57
3.012333559142841 -1.840179848824478 0.686149147374055 100
3.019777054997949 -1.843279786847408 0.560348253774107 23
3.014617976427048 -1.839408559697654 0.433611123835515 5
2.986459384361729 -1.840876555775436 0.940030771812355 33
2.985007976003082 -1.838544338239175 0.809373893529226 57
2.982807061296294 -1.835752856667040 0.680806495503512 100
3.004912002663882 -1.848634198307219 0.558783909123705 22
2.994972745935678 -1.841078718343171 0.431661214341032 3
2.973451421052745 -1.847212297860168 0.937960219451535 38
2.961694297601262 -1.839192031101451 0.804874872442349 58
2.976058655786241 -1.846673060668840 0.680806495503512 100
2.981652176058697 -1.848702674225361 0.555655219822900 20
2.981455546496361 -1.847860430352680 0.430686259593791 1
2.935874558203359 -1.838102387016628 0.928125095737639 37
2.939058188410917 -1.838667849749309 0.800375851355472 52
2.953270978611311 -1.846125304382517 0.676990315595981 98
2.953403046569400 -1.845491047636854 0.551587923731854 19
2.910475345639512 -1.834953098597224 0.921913438655179 38
2.927998842168841 -1.845286969502948 0.799026145029408 56
2.943810183544630 -1.853816209891103 0.676227079614475 100
2.932543442285235 -1.845291884142578 0.548772103361130 16
2.889056818083697 -1.836281711730926 0.917254695843334 36
2.913314694623201 -1.850272543391848 0.796776634485970 52
2.904168612932300 -1.843041445088858 0.668594719799413 97
2.910747958448831 -1.846504280918207 0.545956282990406 18
2.924034995149979 -1.853502120680589 0.425080269797154 1
2.874816864187632 -1.840643686674805 0.914666505392308 32
2.893707455636274 -1.852026658927542 0.793177417616468 51
2.884485917736054 -1.844705704157086 0.665541775873388 100
2.904284722394779 -1.856653437862755 0.545956282990406 16
2.884089140449414 -1.842324936329617 0.420205496060948 2
2.860257795262545 -1.845430706380957 0.912078314941283 35
2.864297564765807 -1.847329216280376 0.786878788094840 52
2.868127643553982 -1.848382134373075 0.663252067928870 93
2.884501119299562 -1.858221668474199 0.543453331549762 17
2.870963994991637 -1.848083194201893 0.419230541313707 3
2.846996933078350 -1.851688509195262 0.910007762580463 36
2.843125908477123 -1.847758852690701 0.782829669116650 56
2.851778970296220 -1.851966917431343 0.660962359984351 87
2.850153056799469 -1.849496890625071 0.538134559738394 18
2.861164681170055 -1.855932895776979 0.418743063940087 5
2.816279504535094 -1.845731014048198 0.902243191227387 32
2.830137650632461 -1.853401446741586 0.781030060681899 53
2.835440338186784 -1.855460165575654 0.658672652039833 90
2.835089600549488 -1.854524025494567 0.536570215087992 17
2.849683965276390 -1.862650636345652 0.418011847879656 3
2.798212530740094 -1.848586817916923 0.898619724595952 36
2.811941207897152 -1.856246801601329 0.777880745921085 57
2.810593560901205 -1.853948893771639 0.654474854141549 78
2.815404201182439 -1.855712084851664 0.534067263647348 17
2.826261554534768 -1.862160973899323 0.415574461011553 3
2.788526417433941 -1.856202191905719 0.897584448415542 35
2.792463908731168 -1.857416870872932 0.774281529051583 57
2.789389528918952 -1.853967797416447 0.651040292224771 80
2.797390737020679 -1.857878286814530 0.531877181136785 16
2.804859901008220 -1.862133518118384 0.413380812830260 2
2.769518992398929 -1.856832664068220 0.893443343693902 36
2.769775251859265 -1.856303839520760 0.769782507964706 58
2.773113520204479 -1.857138681804660 0.648750584280252 77
2.781038294221168 -1.861040042681976 0.529999967556302 18
2.775243226392334 -1.856460849835829 0.409968471214916 2
2.748289049674773 -1.857235911959667 0.888784600882056 37
2.742283563969433 -1.851783473766572 0.763933780551766 56
2.763359161678044 -1.864611096184612 0.647987348298746 82
2.763060129335633 -1.863006024392773 0.527809885045739 17
2.765453853999050 -1.863917996341186 0.409480993841295 2
2.721353621787422 -1.852208655323259 0.882055305709391 41
2.729358161002833 -1.856959755260933 0.762134172117015 56
2.743845003585058 -1.865415291659666 0.644934404372721 90
2.730396360115900 -1.854878894402230 0.522803982164452 15
2.749077393923460 -1.866868590852228 0.408018561720434 2
2.698616220753357 -1.851242243553120 0.876878924807340 41
2.713215403041657 -1.859864786164307 0.759434759464888 56
2.719499917881521 -1.862777710239744 0.640736606474437 89
2.734988919313917 -1.872685996980300 0.524994064675015 20
2.737629104605355 -1.873090468632764 0.407287345660003 1
2.687694208971504 -1.856886699381226 0.875326010536725 40
2.703499735057510 -1.867109505147363 0.758534955247513 53
2.695206895910831 -1.859993046602904 0.636538808576153 82
2.707623229074101 -1.867166771113658 0.520926768583969 15
2.724536539956972 -1.878128558813280 0.406312390912762 1
2.673268248652229 -1.860738984419874 0.872737820085700 35
2.674895858695514 -1.860486134157416 0.752236325725885 45
2.676127119369287 -1.859956800644769 0.633485864650129 75
2.701089104974769 -1.876606764551186 0.520926768583969 13
2.693833711593742 -1.870172139084138 0.402656310610607 1
2.652846018792668 -1.859613593243302 0.868079077273855 18
2.666789329562536 -1.868693619884294 0.751786423617197 30
2.664793743164349 -1.865908666737745 0.632341010677870 61
2.665717674683134 -1.865169217552045 0.515295127842521 13
2.635292457874896 -1.861061567680267 0.864455610642419 13
2.651024613445069 -1.870785169096612 0.749087010965070 23
2.637733524946217 -1.860026939613415 0.627379976798079 23
2.651117946899339 -1.868772408301516 0.513730783192118 8
2.625631845952933 -1.868009297502372 0.863420334462009 11
2.647326192809898 -1.882747940090533 0.749986815182446 13
2.634099074675880 -1.871956775417268 0.628143212779586 26
2.631693892111383 -1.868865260597009 0.511227831751475 7
2.634797290481618 -1.888417057783977 0.868596715364060 12
2.656911460422685 -1.902863267379865 0.754485836269323 12
2.634263051382861 -1.885251777412030 0.629669684742598 21
2.654072770205331 -1.898728526185073 0.516859472492923 5
2.648884572316563 -1.911841755434053 0.875326010536725 12
2.637610212193741 -1.903004375543471 0.750886619399821 13
2.637221395750609 -1.901324442537292 0.631959392687116 21
2.644556243799822 -1.905209963391565 0.516233734632762 1
2.648444878688820 -1.925620678109409 0.877396562897545 12
2.647050758621709 -1.923194949927524 0.755385640486699 12
2.643611547250838 -1.919286669466328 0.635012336613141 22
2.698641107748223 -1.958519473557625 0.528122753975819 1
2.640148543664514 -1.933712237799324 0.876878924807340 13
2.643128827114395 -1.935186381051098 0.756285444704074 13
2.642897136142705 -1.933600029205922 0.636538808576153 22
2.630273473317162 -1.940622415289470 0.875843648626930 11
2.642971100370468 -1.948566348578880 0.758085053138825 11
2.634889937993955 -1.941189079797407 0.636157190585400 25
2.629685500856128 -1.954401397433776 0.877914200987750 2
2.642068614631754 -1.962888875276199 0.759884661573576 2
2.618299391172154 -1.943811799696164 0.633867482640882 5
2.624393836088657 -1.964726570592963 0.878431839077955 1
2.623061574719517 -1.962300767303201 0.756285444704074 2
2.613411532436963 -1.953659192508624 0.634249100631635 2
2.605180156552008 -1.964570198218009 0.874290734356315 1
2.600290480724219 -1.960171061188251 0.751786423617197 2
2.599960936392355 -1.958499733062137 0.632722628668623 2
0.808052842090916 -0.608248405837735 0.160188892201196 12
2.573692737763834 -1.954955479380452 0.866008524913034 2
2.596880481594543 -1.971139570588916 0.752686227834572 2
2.587195201449208 -1.962365002072311 0.631196156705610 2
0.796480305497859 -0.603904409129731 0.158311678620714 13
2.567195720738804 -1.963479403049170 0.866008524913034 1
2.582243561125517 -1.974274277897352 0.750436717291134 1
2.570969182505421 -1.964232710580424 0.628906448761092 2
0.791333096291364 -0.604144912086813 0.157685940760553 12
2.551143976487954 -1.965354763859060 0.862902696371804 1
2.569505737157110 -1.978071471398305 0.748637108856383 2
2.548880485125502 -1.960776996073488 0.625090268853561 2
0.790785327466501 -0.608107673031711 0.157998809690633 13
2.547320576834495 -1.976616568385974 0.863937972552214 1
2.545300609319897 -1.974337532111539 0.743688185660818 2
2.543228453050461 -1.971308690784367 0.625471886844314 2
0.785534420523889 -0.608445059504011 0.157373071830472 13
2.534316929184910 -1.980737805076533 0.861867420191394 2
2.531060287436115 -1.976769716584104 0.741438675117379 3
2.545963563614947 -1.986978840565058 0.627761594788832 2
0.778733364981450 -0.607538150581710 0.156434465040231 17
2.521315622417125 -1.984792401795231 0.859796867830574 3
2.540643803094767 -1.999289528527771 0.746387598312944 3
2.537120560677427 -1.995083362995316 0.627379976798079 4
0.782820780100299 -0.615134757861738 0.157685940760553 20
2.517399583381535 -1.995981802879958 0.860832144010984 1
2.537054803040395 -2.010123992292303 0.747287402530320 2
2.524333764261098 -1.998611127032234 0.625853504835067 6
0.774473005828506 -0.612959885629178 0.156434465040231 17
2.524354862229454 -2.015166011614216 0.865490886822829 1
2.560486553815605 -2.043277987415869 0.756285444704074 1
2.521946824172015 -2.011082612450719 0.626998358807326 2
0.775525843680103 -0.617986859446989 0.157060202900392 12
2.613661422375487 -2.101437736349390 0.898619724595952 1
2.574964867812187 -2.068845441126595 0.762584074225702 1
2.593339720478951 -2.082119456119987 0.646460876335734 2
0.767201679718057 -0.615744446318696 0.155808727180070 15
6.771001501807185 -5.483048904902870 2.334547786824737 1
7.808121491988302 -6.320636018531745 2.319245370285248 0
2.631482409459842 -2.128652045066364 0.657909416058326 3
0.760438935617996 -0.614693314594042 0.154870120389829 14
6.718885126723787 -5.479788995505073 2.323159748840226 1
7.781076194877955 -6.341569394904133 2.317445761850497 0
2.645720982769463 -2.154723456901480 0.663252067928870 3
0.758288622675254 -0.617343996918822 0.154870120389829 13
2.615318096706899 -2.117842836439202 0.901725553137182 1
2.667333064479418 -2.159193022043532 0.792277613399093 1
2.711518495400103 -2.209884889119185 0.807574285094475 1
6.708672999549820 -5.510566127776832 2.326265577381456 1
7.748744480428194 -6.362625897843316 2.314746349198371 0
0.765294271076158 -0.627502152945480 0.156747333970311 8
6.686419628002747 -5.531487377246386 2.325230301201046 1
7.727602647383423 -6.388286676647001 2.314746349198371 0
0.767668673754729 -0.633943176808549 0.157685940760553 8
6.670038817393941 -5.557266831631189 2.326265577381456 1
7.698146890923003 -6.411578262812010 2.312946740763620 0
0.771526131113573 -0.641671509926463 0.158937416480875 8
6.650599699904306 -5.580515755297433 2.326265577381456 1
7.682816039010246 -6.442079404167552 2.314746349198371 0
0.761709910062022 -0.638018596261855 0.157373071830472 8
3.125390470291243 -2.620655431083126 0.941645113483419 1
6.648786034397935 -5.618659824148687 2.332477234463917 1
7.668084990557683 -6.477740479400603 2.317445761850497 0
0.759478168948604 -0.640673573009779 0.157373071830472 10
6.614420954472144 -5.629313472711395 2.327300853561867 1
7.637654981022160 -6.495558153826368 2.314746349198371 0
3.120617123429294 -2.652098980244305 0.796055128710945 5
3.131097195959258 -2.645982278482803 1.098428027415098 1
3.124696252219100 -2.639638374347091 0.944344526135545 1
3.092418337700277 -2.631854297072810 1.088075265610997 1
3.107018829014457 -2.642410731964740 0.941645113483419 1
6.609398681414215 -5.664939807343730 2.332477234463917 1
7.640433457716298 -6.546330697584355 2.322844587154750 0
3.110875734159366 -2.663518800134782 0.796055128710945 5
6.607132910331036 -5.703124141536646 2.338688891546377 1
7.606877984854319 -6.561448638521005 2.319245370285248 0
3.080279012643109 -2.640118418868582 1.087039989430587 1
3.097313040286696 -2.653780776688757 0.941645113483419 1
3.079818926329607 -2.658428384700349 1.090145817971817 1
3.082593231883738 -2.658945917724613 0.939845505048668 1
6.569689195663231 -5.710943689364604 2.332477234463917 1
7.562184596001940 -6.571389922260126 2.312946740763620 0
6.555528473137597 -5.738931352517988 2.334547786824737 1
7.557952011518999 -6.611828130545240 2.318345566067873 0
3.044276751119579 -2.646349405990521 1.080828332348127 1
3.058117443121578 -2.657444008632329 0.935346483961791 1
3.008856749311491 -2.634054966676771 1.071510846724436 1
3.022887462786854 -2.644474631681300 0.927248246005412 1
6.536461446443859 -5.760638713735203 2.334547786824737 1
7.543599706490856 -6.645899312733360 2.321044978719999 0
6.530761830525824 -5.796243674303401 2.339724167726788 1
7.521519632906430 -6.670878249418272 2.321044978719999 0
0.770327417664712 -0.682487460158326 0.163004712571921 10
3.005902669606333 -2.649127426227674 1.073581399085256 1
3.020949213725549 -2.661451440222354 0.929497756548850 1
2.985078305722644 -2.649345006882926 1.069440294363616 1
3.004817205547616 -2.664989352985280 0.927248246005412 1
6.496085639146091 -5.806131069818492 2.334547786824737 1
7.479580813564991 -6.682820493288844 2.315646153415746 0
0.775310268217544 -0.691747796094354 0.164569057222323 11
6.475778883133517 -5.828771267410802 2.334547786824737 1
7.466071929117367 -6.715406151941901 2.318345566067873 0
0.771421520014819 -0.693129672619582 0.164256188292242 12
2.967169937170942 -2.652024391092260 1.066334465822385 1
2.974684656181763 -2.657807178892999 0.920949616483783 1
2.949279340566795 -2.654611127109044 1.063228637281155 1
2.957161421953919 -2.659837755892377 0.918250203831657 1
2.931406944178297 -2.657105372019076 1.060122808739925 1
7.452961326890445 -6.753193606351395 2.321944782937375 0
0.763138318778815 -0.690516741354465 0.163004712571921 11
0.721967633079542 -0.659016006901372 0.261924873643751 1
7.442043914076592 -6.788377677024004 2.325543999806877 0
0.735714438138498 -0.666871172469631 0.266065978365391 1
2.918510916807902 -2.644488331415650 0.909252161657902 1
2.912604921295598 -2.656778494993143 0.910151965875278 1
0.738270615172136 -0.678399171838318 0.268654168816417 1
7.395340276180319 -6.793221035399823 2.318345566067873 0
0.781004665784603 -0.716913757718480 0.206073715006668 16
0.750077215762705 -0.694092933571975 0.273830549718467 2
2.883007286997531 -2.665957819694305 0.906552749005776 1
0.775739210974956 -0.716834906905636 0.205310479025162 30
2.891832069959896 -2.656382764667309 0.906552749005776 1
0.746236482882627 -0.695389936619914 0.273312911628262 3
2.154556045392229 -2.007047924396675 0.679802086227160 1
0.777417672941878 -0.723686366649642 0.206455332997421 34
0.742395851906603 -0.696668599699431 0.272795273538057 4
2.135095075712516 -2.002184543173375 0.675752967248970 1
0.776446125389486 -0.727602838142878 0.206836950988175 30
0.731534915385924 -0.691294633878068 0.269689444996827 7
2.124909149295683 -2.007320182628010 0.674853163031595 1
0.770918857408188 -0.727748403829101 0.206073715006668 31
0.729117390032798 -0.693843955662269 0.269689444996827 12
2.133774719204487 -2.029127539423043 0.679802086227160 1
0.768501317960867 -0.730300861478173 0.206073715006668 19
0.757620814529293 -0.719709604316265 0.165507664012564 12
0.747032975816793 -0.710396074357902 0.237998215495809 0
0.729480581307708 -0.699058085453903 0.270724721177237 23
0.768655838026882 -0.735827886379083 0.206836950988175 13
0.759386196482855 -0.726446311524219 0.166446270802806 12
0.733986599645519 -0.708307647761967 0.273312911628262 26
0.719611294265248 -0.693950319480369 0.230799781756805 0
0.763384169716040 -0.735648172301340 0.206073715006668 11
0.746887301839017 -0.719499314078434 0.164256188292242 12
0.723319711462611 -0.702661175289515 0.270207083087032 26
0.755175985898878 -0.732839447413209 0.204547243043656 10
0.745915339491766 -0.723347310574830 0.164569057222323 10
0.715338708494608 -0.699778059829956 0.268136530726212 26
0.754146019253234 -0.736711574199592 0.204928861034409 9
0.712891669131513 -0.702270794617715 0.268136530726212 22
0.736048129408759 -0.724323264493215 0.200731063136125 8
0.703578453607163 -0.697952318283167 0.265548340275186 16
0.732247382943988 -0.725378432269407 0.200349445145372 8
0.690203935193048 -0.689481533504911 0.261407235553546 12
0.711527378038380 -0.710534591335770 0.232149488082869 4
0.678259226318422 -0.682296087043043 0.257783768922111 8
0.681302138629103 -0.690158769856616 0.259854321282931 9
0.714823505093051 -0.723357945800033 0.197678119210100 10
0.684298357397607 -0.698050942718110 0.261924873643751 13
0.691891005434507 -0.705303522047874 0.228100369104679 6
0.708294843978106 -0.721521371581592 0.196533265237841 9
0.676588630086275 -0.694780222335498 0.259854321282931 19
0.682625760104707 -0.700734943704552 0.225850858561240 8
0.704401518237373 -0.722583581592564 0.196151647247088 6
0.670130432236474 -0.692971562855226 0.258301407012316 21
0.678943110116215 -0.701594371454044 0.225400956452553 8
0.663693154295309 -0.691126333181141 0.256748492741701 29
0.673667009691898 -0.701267418819564 0.224501152235177 6
0.658610191713342 -0.690642719680149 0.255713216561290 32
0.674028551820839 -0.706317152673342 0.225400956452553 14
0.652210394023629 -0.688729368233310 0.254160302290675 39
0.674239812445413 -0.711494652849749 0.226300760669928 18
0.649922899060580 -0.690888388971912 0.254160302290675 41
0.662526531134451 -0.703794023654381 0.223151445909114 16
0.646309258617205 -0.691628325853537 0.253642664200470 49
0.656195944482490 -0.701717087409638 0.221801739583051 23
0.640069251079210 -0.689520204057287 0.252089749929855 63
0.655191657678880 -0.705317020547022 0.222251641691739 21
0.633370340680636 -0.687820692858212 0.250536835659240 64
0.652355062341077 -0.707941438540856 0.222251641691739 23
0.638909342284164 -0.698469935816356 0.253642664200470 60
0.652635451624591 -0.712975735541847 0.223151445909114 28
0.637888782057613 -0.702014560008956 0.254160302290675 57
0.643712434036750 -0.707926999921731 0.220901935365675 34
0.649952319371673 -0.714538765699310 0.187756051450520 6
0.635557310556124 -0.704126015524337 0.254160302290675 53
0.641361324157552 -0.710057734854406 0.220901935365675 35
0.618671102791826 -0.690731910826635 0.248466283298420 56
0.642532194309740 -0.716868598169035 0.222251641691739 31
0.616377151568637 -0.692779700256873 0.248466283298420 46
0.640151439511583 -0.718995370121794 0.222251641691739 31
0.631862168978746 -0.715195742639281 0.255713216561290 32
0.644091600940410 -0.728525388880235 0.224501152235177 32
0.632035550683157 -0.720191137231988 0.256748492741701 29
0.630098936484936 -0.717479080721810 0.220452033256988 36
0.633198477422512 -0.726872802713976 0.258301407012316 25
0.623623389420595 -0.715376850688519 0.219102326930925 34
0.619407722274933 -0.715820838257358 0.253642664200470 36
0.622523348000737 -0.718914111641781 0.219552229039612 32
0.638855112572438 -0.737514514165947 0.189664141404286 13
0.611620693045633 -0.712331103057362 0.251572111839650 35
0.622298326855854 -0.724255268137737 0.220452033256988 24
0.628340265174121 -0.731028954861945 0.187374433459767 17
0.618030435096945 -0.724644463183628 0.255195578471085 34
0.623688452647771 -0.730761727481511 0.221801739583051 24
0.624637859830523 -0.731615493978439 0.186992815469014 19
0.619370220167953 -0.731111989946798 0.256748492741701 29
0.613700735494045 -0.723907160889795 0.219102326930925 22
0.619668675234542 -0.730688221238699 0.186229579487508 18
0.615698524529864 -0.731683726767456 0.256230854651496 31
0.610041568940215 -0.724447652549387 0.218652424822237 21
0.622301581073969 -0.738745157233905 0.187756051450520 14
0.608058996634899 -0.728004668495245 0.254160302290675 34
0.614880784175359 -0.735650042682401 0.221351837474363 16
0.627145737580131 -0.750057886546789 0.190045759395039 10
0.599474074096262 -0.722583079673866 0.251572111839650 35
0.608703522461217 -0.733186936622246 0.220002131148300 14
0.613366061812588 -0.738540679443080 0.186611197478261 10
0.594113602577635 -0.722000222444618 0.250536835659240 31
0.610710479571867 -0.741641893678501 0.221801739583051 12
0.607899926573537 -0.737966269201641 0.185847961496755 11
0.605164190033859 -0.740420186262657 0.256230854651496 28
0.595910066005949 -0.728578562522229 0.217302718496174 14
0.602705540817113 -0.742422911953097 0.256230854651496 45
0.599634532348929 -0.738113301830023 0.219552229039612 15
0.584476378124098 -0.724867115568480 0.249501559478830 46
0.600854773871559 -0.744647484161101 0.220901935365675 12
0.592679459803997 -0.740579231862436 0.254160302290675 26
0.610170155496269 -0.762161918605183 0.225400956452553 9
1.631028726937825 -2.034400904416072 0.412986987706210 1
0.586485302619982 -0.738106020384898 0.252607388020060 16
0.608852233627453 -0.765706436758900 0.225850858561240 10
1.623917405756535 -2.040081862883526 0.412986987706210 1
0.600656639099468 -0.761382514651026 0.259854321282931 9
0.606041689698964 -0.767932848648875 0.225850858561240 16
1.629034678696966 -2.061235978473030 0.416115677007014 1
0.603951386816492 -0.771078887272378 0.262442511733956 9
0.605896150183478 -0.773005816357354 0.226750662778616 22
1.570614023108291 -2.001638976727093 0.402975181943635 1
0.602577252044856 -0.774602230130101 0.262960149824161 13
0.606784606468335 -0.779729865381195 0.228100369104679 25
1.534825457767312 -1.969441849333655 0.395466327621704 1
0.590422947408652 -0.764469387919163 0.258819045102521 12
0.605387300032012 -0.783279637478370 0.228550271213367 17
1.525523843195252 -1.971662727882116 0.394840589761543 1
0.590101857615968 -0.769591793971824 0.259854321282931 11
0.602512370376360 -0.785493231716071 0.228550271213367 8
1.523445576032809 -1.983241955115002 0.396092065481865 1
0.594432745021913 -0.780869817095121 0.262960149824161 9
0.608170665530782 -0.798338113487787 0.231699585974181 3
1.506930464720644 -1.975981827802339 0.393589114041221 1
0.600882732739428 -0.795374667257925 0.267101254545801 7
1.475835749844687 -1.949989478484874 0.387331735439612 1
0.595784468743458 -0.794376335221879 0.266065978365391 4
5.906274666502938 -7.869279385888361 2.271555746764349 0
1.473766454821698 -1.961446283905557 0.388583211159933 1
0.587476496596467 -0.777347019738498 0.224951054343865 0
0.586085676373636 -0.787154076121132 0.262960149824161 2
5.868080079322496 -7.878371237836271 2.267956529894847 0
1.466910750885318 -1.966578739064802 0.388583211159933 1
0.585631017474711 -0.792302168632776 0.263995426004571 1
5.846557720566794 -7.904054016300492 2.269756138329598 0
1.451808300148063 -1.960574663141841 0.386393128649370 1
0.587433264013520 -0.800571705399890 0.266065978365391 1
5.806017328745360 -7.909720157571303 2.265257117242720 0
1.453145805231222 -1.976771700713954 0.388583211159933 1
0.580085478386051 -0.796371303359364 0.263995426004571 1
5.779755828029147 -7.928930114532748 2.265257117242720 0
1.434592313109139 -1.965875302949432 0.385454521859129 1
1.543946690903516 -2.118055810138341 0.605118336184997 1
0.573906195044458 -0.793694908213707 0.262442511733956 1
5.746087479889668 -7.943744883823750 2.263457508807969 0
1.421927063859832 -1.962872323128942 0.383890177208727 1
0.562120238643190 -0.783138059631366 0.258301407012316 4
5.719713478629863 -7.962755919165216 2.263457508807969 0
1.410453603571113 -1.961408742790888 0.382638701488405 1
1.554447437910920 -2.148963781928866 0.612316769924001 1
1.529122367075565 -2.128782888347688 0.605118336184997 1
0.559520168523776 -0.784997811557831 0.258301407012316 2
5.689620702480683 -7.979499539150368 2.262557704590594 0
6.025591196847120 -8.444449397841465 2.016469463139325 1
1.400497735745814 -1.961252439100653 0.381700094698163 1
4.925074025939715 -6.961082503102387 2.284854530165053 1
5.658624067617345 -7.991961367026716 2.260758096155843 0
1.403924128925211 -1.980633371242726 0.384515915068887 1
4.891863123693662 -6.965584358117288 2.280713425443412 1
5.633775087107320 -8.019025807495986 2.262557704590594 0
1.370857820439940 -1.948364059103733 0.377319929677037 1
4.854261920054747 -6.963600140532862 2.274501768360953 1
5.602692208345916 -8.031270936110037 2.260758096155843 0
1.356131046703725 -1.941800757526662 0.375129847166474 1
1.499626073676668 -2.149663563993632 0.605118336184997 1
4.830904308161631 -6.984522798610177 2.275537044541362 1
5.574030753024883 -8.055929537056059 2.261657900373219 0
1.358005748878772 -1.959747395821299 0.377632798607117 1
4.808681100365266 -7.004528573966513 2.276572320721772 1
5.542871687093096 -8.067944593313634 2.259858291938468 0
1.432619074400934 -2.083694500766248 0.491523972089979 1
1.351156680422323 -1.964475781058725 0.377632798607117 1
1.368620777082245 -1.988380336707118 0.296386243161319 1
1.491360923576381 -2.155405853857251 0.605118336184997 1
4.796307722691036 -7.036399014545179 2.281748701623823 1
5.503696687440234 -8.071143248142928 2.255359270851590 0
1.425336895237283 -2.088682579985822 0.491523972089979 1
1.351318997864148 -1.978733210076791 0.379510012187600 1
4.760891756713654 -7.037097707818148 2.276572320721772 1
5.479086630140761 -8.092577134978800 2.256259075068966 0
1.418402737216277 -2.093397683173998 0.491523972089979 1
1.326670425104426 -1.957275722852028 0.374504109306313 1
1.430134476341826 -2.112299794553788 0.588921860272239 1
4.744914064911208 -7.066504141908498 2.280713425443412 1
5.466774937528007 -8.138487321869862 2.263457508807969 0
1.366909327613987 -2.033408963914602 0.476259252459856 1
1.322035405336162 -1.965172762075260 0.375129847166474 1
1.341287677063854 -2.012697676359790 0.648082888936712 1
1.356965739802767 -2.034684291615341 0.564627146403101 1
1.340541109983480 -2.008537388149010 0.469390128626300 1
1.306392521260639 -1.956632764975585 0.372626895725830 1
1.415074235427446 -2.107441316946838 0.680176450529425 1
1.381091422301352 -2.056055930450526 0.571825580142105 1
1.334967178880391 -2.019211724325247 0.648600527026917 1
1.337317970084395 -2.022000230800335 0.559678223207536 4
1.329568238807883 -2.008758487503530 0.468245274654041 2
1.307939195919530 -1.974582654016345 0.375129847166474 1
1.332149821784689 -2.030320171492028 0.650671079387737 5
1.320978856097171 -2.011763196869230 0.555629104229347 8
1.312118066996671 -1.996749306801898 0.464429094746510 4
1.309719472776615 -1.992341429586280 0.377632798607117 1
1.316974328846944 -2.021776844514844 0.646529974666097 10
1.316076295923166 -2.019627380823567 0.556528908446722 38
1.307284965510426 -2.004606224270054 0.465192330728016 8
1.290149948571916 -1.976822721835384 0.373878371446152 1
1.305713922374239 -2.019872076622683 0.644459422305277 31
1.303020698858751 -2.014163336954964 0.553829495794596 35
1.301697228763370 -2.010578330457228 0.465573948718769 14
1.273577107743342 -1.966392110902985 0.371062551075428 1
1.301430389334303 -2.029522850994519 0.646012336575892 42
1.297381711323731 -2.022432223544447 0.554729300011971 41
1.289725068714436 -2.008953256411448 0.464047476755757 15
1.267429124316119 -1.972708724634991 0.371375420005508 1
1.290189584199615 -2.027533924590347 0.643941784215072 37
1.289621180503979 -2.025079642842596 0.554279397903283 43
1.274614890085501 -1.999974230502339 0.460994532829732 16
1.256287561795947 -1.970458278660975 0.370123944285186 1
1.282427226103436 -2.030167918654054 0.643424146124867 39
1.267970107517274 -2.006505640143203 0.547980768381655 40
1.269724630214340 -2.007729843970429 0.461757768811238 15
1.258197749450055 -1.987966704917501 0.372626895725830 1
1.272254768868391 -2.029721440200488 0.641871231854251 33
1.259238207831617 -2.007397707128834 0.547080964164280 32
1.266191329914439 -2.016917618017569 0.462902622783498 11
1.235491959275690 -1.967253997816431 0.367933861774623 1
1.258372927292322 -2.022447370401968 0.638247765222816 35
1.254282988451980 -2.015089889400426 0.547980768381655 13
1.257067178286530 -2.017992392562722 0.462139386801992 7
1.274943070124649 -2.045097847450959 0.381700094698163 1
1.249275909292909 -2.023539954206182 0.637212489042406 32
1.250666704265063 -2.024211655040095 0.549330474707718 8
1.241075781849263 -2.007121517829518 0.458704824885214 2
1.240186621243258 -2.024593711914659 0.636177212861996 18
1.247312052863556 -2.035428277841467 0.551130083142469 5
1.237816505049423 -2.018351171929363 0.460231296848226 1
1.232757784243175 -2.029125624307919 0.636177212861996 6
1.231087813540468 -2.024783744996297 0.547080964164280 2
1.243010007487623 -2.042785628158348 0.464810712737263 1
1.235997953477029 -2.049745990791674 0.641353593764046 3
1.225019088313447 -2.030737349768814 0.547530866272967 1
1.217925716563526 -2.035811841485889 0.635659574771791 1
1.196655926611236 -2.017001771267934 0.628412641508920 1
0.248747886432306 -0.425680989961482 0.113825233497996 5
0.245938263054831 -0.424607301711459 0.131480074912081 14
0.249655727077193 -0.434164616091161 0.115624841932747 5
0.248138688757470 -0.435033432128786 0.115624841932747 5
0.245356914991275 -0.433843536567019 0.133550627272901 13
0.248537838050772 -0.439289141564684 0.116524646150122 5
0.243765150924676 -0.434739900572382 0.133550627272901 13
0.241280843274932 -0.429957405899311 0.113825233497996 5
0.238032232620581 -0.427308440889540 0.112925429280620 5
0.249732619014746 -0.452016861192980 0.119224058802248 4
0.232004072972918 -0.423588580579118 0.129409522551260 14
0.237900829348726 -0.437976512327092 0.133550627272901 13
0.244709973493963 -0.450324771303465 0.118324254584873 5
0.236293967249794 -0.438845520652049 0.133550627272901 13
